x	y	z
29.527052	2.269828	0.535013
7.580949	0.027500	0.005160
7.680993	0.024646	-0.276281
63.553038	4.716184	3.484840
7.517804	0.006962	0.279476
7.581997	0.004243	0.005161
7.680033	0.001081	-0.276245
63.651867	4.527205	3.489482
63.618786	6.832896	2.892099
7.521787	-0.016111	0.279624
7.579974	-0.019013	0.005160
7.679001	-0.022478	-0.276209
63.616644	4.328582	3.486806
63.645410	6.638306	2.892369
7.529697	-0.039229	0.279922
7.549481	0.234680	0.208339
7.578880	-0.042263	0.005159
7.568089	0.233672	-0.067927
7.670901	-0.045989	-0.275922
63.524005	4.126527	3.481018
7.526543	-0.062304	0.279810
7.520188	0.210678	0.207512
7.574715	-0.065480	0.005156
7.632743	0.212231	-0.068502
7.645741	-0.069297	-0.275023
63.577229	3.934147	3.483257
63.622307	6.241515	2.889525
7.541305	-0.085565	0.280367
7.486822	0.186758	0.206575
7.575478	-0.088730	0.005157
7.609366	0.188220	-0.068286
7.533573	-0.091395	-0.270997
63.585010	3.738842	3.483039
63.684916	6.050453	2.891512
7.554996	-0.108903	0.280887
7.489359	0.163831	0.206630
7.578171	-0.112015	0.005159
7.608908	0.164852	-0.068277
63.608146	3.544415	3.483694
63.600717	5.845624	2.886861
7.548631	-0.131976	0.280665
7.458844	0.140271	0.205775
7.560794	-0.134961	0.005147
7.610378	0.141526	-0.068286
63.609746	3.348779	3.483202
63.527800	5.642430	2.882752
7.508227	-0.154313	0.279179
7.459239	0.117387	0.205775
7.609776	0.118161	-0.068277
63.636674	3.154452	3.484131
63.538841	5.446991	2.882481
7.568659	-0.178787	0.281445
7.466561	0.094590	0.205968
7.625101	0.095001	-0.068412
63.964231	2.973996	3.501548
63.610008	5.256556	2.884964
7.572071	-0.202113	0.281593
7.479810	0.071807	0.206327
7.640355	0.071748	-0.068546
63.463966	-1.868877	4.683692
63.508190	2.757558	3.476104
63.568078	5.056783	2.882345
7.553436	-0.224807	0.280925
7.484993	0.048892	0.206464
7.639540	0.048301	-0.068537
63.387164	-2.061272	4.678468
7.444843	-0.244438	0.276912
7.493105	0.025956	0.206685
7.627653	0.024824	-0.068430
63.350642	-2.254667	4.676261
7.492150	0.002967	0.206657
7.623693	0.001422	-0.068394
63.338445	-2.448821	4.675893
7.496122	-0.020030	0.206768
7.485507	0.252885	0.135311
7.611662	-0.021933	-0.068286
63.296757	-2.641715	4.673392
7.503023	-0.043067	0.206961
7.442276	0.228568	0.134516
7.603559	-0.045237	-0.068215
7.624223	0.231226	-0.139268
63.364072	-2.839287	4.678983
7.505854	-0.066113	0.207043
7.498912	0.207282	0.135528
7.616384	-0.068681	-0.068331
7.646885	0.208434	-0.139670
63.528738	3.878420	2.876836
7.515611	-0.089259	0.207319
7.515505	0.184668	0.135817
7.614138	-0.092024	-0.068313
7.644490	0.184900	-0.139615
63.673978	3.691245	2.882887
7.519300	-0.112376	0.207429
7.516036	0.161609	0.135817
7.621818	-0.115504	-0.068385
7.643022	0.161404	-0.139579
7.532912	-0.135696	0.207815
7.514497	0.138513	0.135781
7.625427	-0.138960	-0.068421
7.631485	0.137738	-0.139360
7.572437	-0.159649	0.208918
7.500891	0.115243	0.135528
7.623874	0.114205	-0.139214
7.586901	-0.183242	0.209332
7.491211	0.092107	0.135347
7.630187	0.090886	-0.139323
7.496370	-0.204069	0.206850
7.490459	0.069115	0.135329
7.614433	0.067335	-0.139031
7.429419	-0.221165	0.477004
7.490636	0.046134	0.135329
7.644598	0.044147	-0.139579
7.501746	0.026329	0.410222
7.488742	0.023147	0.135293
7.393981	0.291427	0.064189
7.641698	0.020685	-0.139524
7.508781	0.003317	0.410604
7.454435	0.271689	0.337163
7.487778	0.000172	0.135275
7.439809	0.270376	0.064579
7.629728	-0.002755	-0.139305
7.522735	-0.019756	0.411369
7.461224	0.249018	0.337434
7.496742	-0.022828	0.135438
7.460591	0.248214	0.064753
7.621685	-0.026135	-0.139159
7.519644	-0.042818	0.411205
7.474933	0.226519	0.338021
7.506635	-0.045889	0.135618
7.429333	0.224358	0.064475
7.617570	-0.049492	-0.139086
7.652672	0.226424	-0.213585
7.526466	-0.065949	0.411587
7.487576	0.203912	0.338563
7.514457	-0.068992	0.135763
7.461974	0.202432	0.064753
7.623381	-0.072919	-0.139195
7.673316	0.203475	-0.214142
7.529224	-0.089075	0.411751
7.514132	0.181566	0.339737
7.523208	-0.092156	0.135925
7.517542	0.180861	0.065230
7.624121	-0.096320	-0.139214
7.678901	0.180050	-0.214282
7.536902	-0.112293	0.412188
7.517651	0.158576	0.339872
7.531887	-0.115374	0.136088
7.528059	0.158007	0.065317
7.601796	-0.119365	-0.138812
7.683415	0.156572	-0.214393
7.521547	-0.135147	0.411369
7.510111	0.135367	0.339511
7.542494	-0.138683	0.136287
7.531507	0.134964	0.065343
7.683859	0.132999	-0.214393
7.521097	-0.158222	0.411369
7.513488	0.112371	0.339647
7.529038	-0.161544	0.136052
7.526887	0.111783	0.065299
7.670238	0.109225	-0.214003
7.526565	-0.181440	0.411696
7.515795	0.089343	0.339737
7.522195	0.088631	0.065256
7.619560	0.085123	-0.212581
7.498025	-0.203770	0.410168
7.514036	0.066267	0.339647
7.519432	0.065527	0.065230
7.484390	-0.226381	0.409458
7.517201	0.043231	0.339782
7.513598	0.042423	0.065178
7.645928	0.038500	-0.213306
7.446736	-0.248111	0.407437
7.513302	0.020157	0.339601
7.505693	0.019351	0.065108
7.656006	0.015062	-0.213585
7.513329	-0.002893	0.339601
7.501717	-0.003674	0.065074
7.662014	-0.008433	-0.213752
7.514283	-0.025947	0.339647
7.512670	-0.026728	0.065169
7.662952	-0.031944	-0.213780
7.518164	-0.049027	0.339827
7.525552	-0.049863	0.065282
7.654821	-0.055396	-0.213557
7.523972	-0.072149	0.340098
7.537362	-0.073067	0.065386
7.646619	-0.078798	-0.213334
63.113055	-7.676850	7.032581
63.327323	-5.385856	6.396385
7.527711	-0.095283	0.340279
7.542102	-0.096255	0.065429
7.630349	-0.102043	-0.212887
63.147398	-7.877701	7.039067
63.137055	-5.564828	6.378861
63.294082	-3.253931	5.783434
7.536373	-0.118518	0.340685
7.542771	-0.119409	0.065438
7.551041	-0.124154	-0.210684
63.080537	-8.065977	7.034340
63.231651	-5.768719	6.390177
63.287777	-3.448316	5.783798
7.532372	-0.142360	0.065351
63.094917	-8.264631	7.038738
63.271110	-5.968103	6.395985
63.354450	-3.646927	5.790886
63.380951	-1.352577	5.184202
63.133295	-8.466751	7.045884
63.213880	-6.158426	6.392079
63.359863	-3.842304	5.792431
63.409385	-1.547823	5.186891
7.504004	-0.187104	0.339285
63.121794	-8.662429	7.047533
63.186768	-6.351538	6.391278
63.347776	-4.036671	5.792431
63.376442	-1.741587	5.184609
7.504393	-0.210153	0.339331
63.018147	-8.845267	7.038958
63.220426	-6.550900	6.396686
63.292367	-4.228146	5.788523
63.368807	-1.935954	5.184446
7.497722	-0.232989	0.339060
63.051712	-9.047316	7.045774
7.465023	-0.254900	0.337615
63.110200	-9.253401	7.055449
63.213657	-6.942491	6.400190
63.078567	-9.446536	7.055119
63.159436	-7.132711	6.396886
63.232898	-4.809135	5.786888
63.331376	-2.518430	5.183061
63.024726	-9.636258	7.052371
63.224227	-7.336540	6.405698
63.281380	-5.008137	5.792704
63.307419	-2.712033	5.181757
63.042984	-9.837079	7.057758
63.128311	-7.521764	6.398288
63.316337	-5.206420	5.797338
63.302782	-2.906427	5.182083
63.161233	-7.722286	6.403995
63.177024	-5.390150	5.786070
63.316464	-3.101746	5.183957
63.009891	-10.228336	7.060946
63.161926	-7.919120	6.406499
63.164159	-5.584299	5.786433
63.348454	-3.298160	5.187380
62.990964	-10.423709	7.062375
63.140293	-8.113241	6.406799
63.249870	-5.787495	5.795884
63.272357	-3.488873	5.182001
62.989070	-10.622037	7.065784
63.130888	-8.308992	6.408401
63.151509	-5.973919	5.788523
63.311106	-3.685870	5.186076
62.937573	-10.812038	7.063695
63.112989	-8.503698	6.409203
63.331114	-6.187002	5.806699
63.266669	-3.878076	5.183387
62.923689	-11.008503	7.065894
63.107302	-8.700140	6.411305
63.223650	-6.372382	5.798611
63.318127	-4.076255	5.188603
63.118737	-8.899127	6.415211
63.261252	-6.572289	5.803882
63.291405	-4.269554	5.187462
63.219995	-6.764115	5.801973
63.343626	-4.468338	5.192841
63.292839	-4.659944	5.189826
63.115969	-9.519866	7.568320
62.999114	-9.700008	7.557841
62.985734	-9.895861	7.559842
63.010967	-10.098009	7.566554
62.995373	-10.293839	7.568438
62.910601	-10.478247	7.562080
62.941793	-10.682005	7.569733
62.948847	-10.881993	7.574560
63.074578	-11.103129	7.593753
63.045317	-11.497242	7.598581
63.054661	-11.698941	7.603997
63.018475	-11.892336	7.603997
42.626119	-13.138348	6.589073
62.984618	-12.086179	7.604350
62.979406	-12.285631	7.608236
62.953457	-12.682031	7.614358
62.975547	-12.887653	7.621776
62.942516	-13.082213	7.622601
62.894312	-13.273616	7.621659
8.698013	-3.040016	0.679703
8.694288	-3.068678	0.680145
8.662287	-3.087302	0.678379
8.763477	-3.149383	1.030051
8.757329	-3.033775	0.594782
8.776239	-3.070515	0.596704
8.740431	-3.088117	0.594911
7.777871	-3.095319	1.236593
8.660352	-3.088380	0.925356
8.699898	-3.103852	0.592797
7.629451	-3.090614	1.215988
6.969954	-2.952295	0.558388
7.109435	-3.037134	0.570306
6.913240	-2.978433	0.555298
8.805139	-3.055051	0.509652
42.663348	-13.174391	6.964243
6.908643	-3.001616	0.555666
8.755204	-3.067852	0.507304
6.921688	-3.009869	0.280590
6.861501	-3.002624	1.106387
6.871084	-3.010391	0.553385
8.741045	-3.093033	0.507031
6.909676	-3.029886	0.280479
8.705710	-3.107189	0.843510
6.798872	-3.003649	0.548309
7.505435	-2.993482	0.518569
8.431563	-3.012660	0.489613
8.647662	-3.112833	1.177701
6.954514	-3.097945	0.561625
7.424004	-2.987436	0.513574
6.890955	-3.072226	0.280479
8.640868	-3.140365	1.178083
6.860371	-3.081266	0.554783
6.892434	-3.098270	0.280925
6.698850	-3.029931	1.086074
6.859062	-3.106002	0.555445
6.811901	-3.087225	0.278027
6.934779	-3.165963	0.562361
8.291924	-3.078026	0.483661
6.846026	-3.128044	0.279810
6.883269	-3.164363	1.119101
6.758340	-3.110503	0.548824
8.146862	-3.052649	0.475744
6.749263	-3.108896	0.276244
8.763368	-3.048678	0.419388
7.207776	-3.133133	0.790974
6.903078	-3.001830	0.483089
8.782248	-3.085484	0.420743
6.887412	-2.999307	0.207209
8.581242	-3.039414	0.744454
6.884697	-3.018987	0.482448
7.662222	-3.033035	0.450627
8.753911	-3.105732	0.419840
6.886416	-3.024041	0.207457
8.669343	-3.095808	1.091500
8.635691	-3.088550	0.749996
7.542534	-3.012457	0.444130
8.593477	-3.098476	1.083140
6.870601	-3.063205	0.482768
7.491579	-3.018789	0.441673
6.892118	-3.098181	0.484946
6.856221	-3.107365	0.483089
6.856639	-3.132947	0.483793
8.130385	-3.025713	0.392115
6.810739	-3.137267	0.481231
7.171993	-2.992827	0.424965
6.882955	-3.192370	1.045935
7.250207	-3.051616	0.430152
7.080884	-3.005953	0.420651
7.000949	-2.997402	0.416447
6.983470	-3.015304	0.415955
6.949456	-3.023061	0.691566
6.941228	-3.022364	0.413990
7.093978	-3.104320	1.282756
6.875398	-3.015965	0.685114
6.803792	-3.599102	0.567805
6.893524	-3.026786	0.411696
7.545405	-2.994013	0.366919
7.569571	-3.030515	0.368545
6.740222	-3.614790	0.846007
6.724467	-3.610119	0.563023
6.872087	-3.067805	0.411533
7.487988	-3.024541	0.365023
6.683534	-3.614603	0.560522
6.851716	-3.083956	0.410877
7.737907	-3.166967	1.304052
6.780131	-3.693775	0.569571
6.840404	-3.104137	0.410768
6.753795	-3.079742	1.229642
6.721556	-3.688649	0.565598
6.829941	-3.124693	0.410714
6.752975	-3.732895	0.569203
6.811255	-3.141451	0.410168
7.199630	-3.011352	0.352741
6.812069	-3.792892	0.575162
7.212448	-3.042746	0.353825
6.787353	-3.806456	0.574058
6.935583	-2.951041	0.340685
7.434924	-3.176969	1.261056
6.790405	-3.835600	0.575309
7.062127	-3.051808	0.629127
6.788140	-3.861839	0.576118
6.969585	-3.037226	0.621710
6.817795	-3.906445	0.579649
6.900804	-3.011553	0.340324
6.879938	-3.023309	0.614537
6.843294	-3.032289	0.612092
6.793698	-3.948205	0.579649
6.817579	-3.045952	0.610625
6.801972	-3.055768	1.163044
6.831995	-3.073556	0.888271
6.806384	-3.066035	0.610462
6.797696	-4.006527	0.582077
6.842384	-3.086562	0.339285
6.793638	-3.699961	1.066419
6.775166	-3.077011	0.608506
6.781084	-4.024818	0.581709
6.836520	-3.109194	0.339466
6.778381	-3.103591	0.609647
6.799522	-4.064022	0.584358
6.814235	-3.124324	0.338834
6.794712	-4.089492	0.585020
6.805525	-3.145635	0.338879
6.806120	-3.464002	1.265106
6.771899	-4.104116	0.584137
7.004390	-3.592010	1.304002
6.769491	-4.131107	0.585020
6.794748	-3.212525	0.614619
6.810316	-4.184749	0.589655
6.798357	-3.239787	0.615841
6.791509	-4.201950	0.589140
6.810845	-3.271417	0.617879
6.791283	-4.230676	0.590243
6.798982	-3.291429	0.617716
6.758839	-4.239303	0.588551
6.801393	-3.318391	0.618857
6.765196	-4.272267	0.590243
6.791180	-3.339242	0.618857
6.747008	-4.289792	0.589802
6.754112	-3.346785	0.616412
6.764053	-4.329827	0.592450
6.744704	-3.367936	0.616493
6.718044	-4.329489	0.589581
6.739682	-3.391301	0.616983
6.749907	-4.379391	0.593554
6.710190	-3.689387	0.418740
6.768359	-3.431794	0.620569
6.732265	-4.397352	0.593186
6.817538	-4.133464	0.802389
6.610466	-3.377270	0.607039
6.769328	-3.484663	0.622606
6.716138	-3.483388	0.618694
6.767253	-3.536288	0.624399
21.652777	-12.386363	5.078793
6.768719	-3.563534	0.625540
21.385425	-12.320659	5.024926
19.483644	-12.287589	4.923495
21.066136	-12.222944	4.958691
19.260105	-12.229363	4.876465
20.988773	-12.264280	4.949314
6.707696	-3.926550	0.995950
19.173883	-12.257318	4.864133
20.984828	-12.348493	4.957294
6.825477	-4.728233	1.541008
19.078625	-12.279038	4.849501
20.890365	-12.379346	4.943927
18.976851	-12.296035	4.833198
20.504762	-12.235997	4.861532
6.831150	-4.793925	1.232793
18.661377	-12.173075	4.762340
20.434370	-12.279164	4.853751
18.564272	-12.191085	4.747081
20.403309	-12.345856	4.855347
17.092737	-12.232925	4.712598
18.477836	-12.215624	4.734540
20.161993	-12.284500	4.806868
17.049584	-12.281315	4.711067
18.204182	-12.115135	4.673924
20.097481	-12.329900	4.800483
16.914656	-12.263116	4.684158
18.443158	-12.355987	4.744991
19.816964	-12.241640	4.742427
16.619986	-12.127447	4.612837
18.047617	-12.171381	4.652813
19.683626	-12.242863	4.719484
16.698963	-12.185076	3.836553
16.463946	-12.091164	4.579803
18.070872	-12.267887	4.668489
19.685005	-12.327639	4.728861
16.551350	-12.155354	3.811189
16.502888	-12.197878	4.601024
17.776398	-12.147814	4.602021
19.444843	-12.260451	4.680182
16.424635	-12.140037	3.790569
16.322116	-12.141871	4.560988
17.739850	-12.202849	4.602229
19.306210	-12.255978	4.655842
16.219281	-12.065374	3.751702
16.251980	-12.167328	4.551800
17.543942	-12.147549	4.561052
19.166134	-12.249714	4.631104
16.183764	-12.116255	3.752067
6.825114	-4.032824	0.648280
16.139760	-12.160760	4.530797
17.424759	-12.144282	4.539732
16.082908	-12.117925	3.737286
6.824967	-4.758115	1.460127
15.975640	-12.114118	4.495137
17.404230	-12.209476	4.544122
18.912148	-12.251476	4.587812
16.014318	-12.143446	3.729987
15.800325	-12.057704	4.456196
17.182159	-12.132515	4.495838
18.766130	-12.238782	4.561477
15.928527	-12.155539	3.718674
15.808917	-12.141188	4.469103
17.140075	-12.181773	4.494583
18.629380	-12.231223	4.537336
15.763275	-12.106135	3.688748
15.630307	-12.080433	4.429068
17.079554	-12.217801	4.488522
18.593402	-12.289401	4.537736
15.621038	-12.073269	3.664114
15.576997	-12.115750	4.424474
16.861841	-12.140436	4.441074
18.290472	-12.169971	4.472897
15.560642	-12.103029	3.658639
15.519007	-12.147243	4.418567
16.815806	-12.185798	4.438775
18.214785	-12.200398	4.463520
15.485500	-12.121016	3.649698
15.428776	-12.153136	4.403471
16.662986	-12.153198	4.408258
18.031025	-12.157617	4.427609
15.242016	-12.006026	3.600977
15.145957	-12.005841	4.333245
16.544426	-12.144658	4.386729
17.892295	-12.144090	4.402671
15.299882	-12.127855	3.623421
14.998443	-11.964022	4.301523
16.426863	-12.136088	4.365408
17.817735	-12.173497	4.393494
15.161144	-12.093806	3.599335
15.008085	-12.047240	4.314868
16.306369	-12.124577	4.343252
17.734282	-12.196454	4.382122
15.021993	-12.058404	3.575065
14.968019	-12.090776	4.313993
16.164178	-12.096035	4.315243
17.681472	-12.240207	4.378331
14.931388	-12.061186	3.562292
14.818034	-12.044934	4.281396
15.984040	-12.037909	4.276993
17.463748	-12.168908	4.333642
14.836330	-12.059806	3.548424
14.816510	-12.119375	4.291678
15.946254	-12.086300	4.276783
17.224167	-12.080635	4.283367
14.739900	-12.056710	3.534191
14.673783	-12.077958	4.261050
15.951863	-12.167786	4.288279
17.143795	-12.102904	4.272594
18.755635	-12.233045	4.339266
14.688418	-12.090003	3.530724
14.547233	-12.048851	4.235016
15.827577	-12.149975	4.264869
17.094602	-12.146930	4.269601
18.596562	-12.210780	4.311110
14.577050	-12.073548	3.512841
14.495207	-12.080930	4.230640
15.746890	-12.164997	4.253164
17.018997	-12.171956	4.260025
18.440259	-12.189279	4.283525
14.444020	-12.038268	3.489667
14.337704	-12.024394	4.195418
15.497955	-12.048791	4.195892
16.859897	-12.136523	4.229501
18.312871	-12.185969	4.262598
14.358051	-12.041458	3.477806
14.239597	-12.016720	4.177478
15.401612	-12.049882	4.179797
16.713078	-12.108853	4.201969
18.250114	-12.225157	4.256700
14.325549	-12.089256	3.478901
14.176630	-12.038245	4.169821
15.389926	-12.117040	4.186695
16.736815	-12.204527	4.217331
18.088799	-12.197662	4.227783
14.164733	-12.028141	3.448792
14.130729	-12.074075	4.167196
15.366476	-12.175130	4.190458
16.607656	-12.188564	4.194189
17.866905	-12.127938	4.184598
14.095621	-12.044077	3.440946
14.088440	-12.112917	4.165665
15.147072	-12.077121	4.140711
16.419638	-12.128260	4.156083
17.797999	-12.161096	4.177179
13.900550	-11.951374	3.402261
13.979632	-12.094157	4.144443
15.244191	-12.231244	4.177498
16.251810	-12.081531	4.122965
17.759796	-12.215086	4.176988
13.924047	-12.046070	3.417041
13.854879	-12.060748	4.118410
14.957793	-12.077070	4.109148
16.207606	-12.126052	4.121170
17.677844	-12.238779	4.166525
13.813608	-12.024822	3.398976
13.701104	-12.000971	4.083625
14.883481	-12.092687	4.098906
16.081087	-12.108524	4.098426
17.458986	-12.166665	4.123720
13.713045	-12.011431	3.383283
6.901378	-4.817070	1.312682
13.693503	-12.068757	4.092376
14.689595	-12.010162	4.055639
15.975917	-12.106315	4.081069
17.307448	-12.140116	4.096705
13.680555	-12.057346	3.384378
13.614068	-12.073160	4.079687
14.642107	-12.046474	4.052713
15.923118	-12.143387	4.077079
17.176288	-12.126909	4.074447
13.569938	-12.034025	3.366131
13.542017	-12.083687	4.069186
14.555365	-12.050180	4.038917
15.853138	-12.167124	4.068700
17.078183	-12.136328	4.059988
13.508745	-12.053999	3.360109
13.305938	-11.946558	4.009242
14.430419	-12.021545	4.014462
15.635817	-12.076739	4.022415
17.008129	-12.165250	4.052188
13.456337	-12.081592	3.356277
13.379282	-12.086750	4.042495
14.369487	-12.045657	4.007773
15.519779	-12.063313	4.002065
16.885476	-12.155999	4.031832
13.314877	-12.028567	3.330183
13.233829	-12.029290	4.009679
14.313030	-12.073292	4.002339
15.471119	-12.101814	3.999073
16.832996	-12.196801	4.028218
13.248081	-12.042245	3.322701
13.191102	-12.064566	4.007929
14.266975	-12.109553	3.999830
15.434689	-12.149828	3.999272
16.663033	-12.151783	3.996447
13.129090	-12.007850	3.302082
13.039144	-11.999259	3.972925
14.164319	-12.097377	3.981437
15.182272	-12.026756	3.943411
16.627255	-12.204009	3.996827
12.942126	-11.983517	3.954548
14.130104	-12.143326	3.982272
15.055655	-12.001814	3.920069
16.338628	-12.069467	3.936330
12.813201	-11.937363	3.926326
13.935227	-12.050374	3.937751
15.031757	-12.058371	3.923461
16.223523	-12.061548	3.917496
12.765839	-11.966608	3.923045
13.815564	-12.021175	3.914341
14.869646	-12.003489	3.890742
16.229676	-12.143613	3.927959
12.656661	-11.937426	3.900730
13.702099	-11.996509	3.892602
14.892075	-12.097243	3.906303
16.051179	-12.087047	3.893715
12.599452	-11.956721	3.894385
13.643217	-12.019097	3.886332
14.779783	-12.081477	3.886552
16.044537	-12.159360	3.901135
12.578236	-12.010144	3.899199
13.578471	-12.036248	3.878389
14.687403	-12.081322	3.871988
15.955636	-12.169233	3.888579
12.487148	-11.996624	3.882353
13.431280	-11.979560	3.846827
14.537795	-12.033230	3.842262
15.797516	-12.125475	3.859091
12.455196	-12.039625	3.883884
13.427943	-12.050756	3.856442
14.505327	-12.081536	3.843459
15.653024	-12.091064	3.832838
12.421697	-12.081181	3.884978
13.361151	-12.065025	3.847872
14.380325	-12.052338	3.820117
15.540670	-12.080585	3.814384
12.221381	-11.959537	3.833785
13.277027	-12.063214	3.834286
14.330547	-12.085660	3.816725
15.491936	-12.119133	3.811530
12.181155	-11.993552	3.832691
13.150457	-12.022072	3.808367
14.146963	-12.005300	3.777623
15.313518	-12.055474	3.776716
15.293576	-12.099023	4.534382
12.041708	-11.929230	3.800313
13.001954	-11.959745	3.775969
14.078023	-12.021284	3.769044
15.347257	-12.158485	3.794218
15.257147	-12.146493	4.534609
11.967733	-11.928919	3.788499
12.950129	-11.985628	3.771579
13.999455	-12.028656	3.757871
15.187827	-12.108206	3.763969
15.041173	-12.050131	4.481386
11.909033	-11.943468	3.781499
12.885386	-11.999311	3.763427
13.933576	-12.046555	3.750091
15.005114	-12.038021	3.727823
14.963944	-12.063820	4.469382
11.842112	-11.949453	3.771872
12.800700	-11.993988	3.749423
13.842583	-12.042296	3.735527
14.895543	-12.025413	3.709750
14.878452	-12.070398	4.454887
11.793756	-11.973910	3.768153
12.736803	-12.007712	3.741480
13.737739	-12.025330	3.717172
14.850959	-12.064865	3.707848
14.760618	-12.050080	4.430654
11.679149	-11.930545	3.743213
12.653079	-12.002314	3.727685
13.626512	-12.002006	3.697023
14.811594	-12.108506	3.707277
14.679175	-12.058830	4.417292
11.690804	-12.015977	3.758746
12.584362	-12.010694	3.718279
13.632894	-12.082101	3.708794
14.698561	-12.091522	3.688252
14.619588	-12.085191	4.410497
11.602334	-11.998476	3.742119
12.522767	-12.025538	3.710963
13.467046	-12.009086	3.673681
14.529051	-12.027006	3.654960
14.435674	-12.007901	4.366107
11.538422	-12.005873	3.733368
12.478078	-12.056426	3.708664
13.350640	-11.979015	3.651934
14.464929	-12.048904	3.648111
13.316201	-12.013207	4.353008
14.411464	-12.062762	4.369957
11.402459	-11.937492	3.701209
12.261529	-11.920147	3.655154
13.279642	-11.989056	3.642558
14.421123	-12.087549	3.646399
13.259855	-12.036368	4.346640
14.295420	-12.040407	4.345950
11.348986	-11.954726	3.695739
12.242379	-11.974805	3.660380
13.212334	-12.002067	3.634179
14.292416	-12.054517	3.623189
13.223583	-12.077648	4.346876
14.199713	-12.034459	4.328058
11.290158	-11.966066	3.688520
12.105914	-11.914217	3.630490
13.100952	-11.974453	3.613630
14.131862	-11.993492	3.591799
13.048370	-11.991251	4.301353
14.122704	-12.043836	4.315828
11.191987	-11.935164	3.668393
12.068610	-11.950613	3.630281
13.040351	-11.992700	3.607046
14.103212	-12.043804	3.593892
13.009379	-12.029247	4.300645
14.025815	-12.035730	4.297483
11.139351	-11.952312	3.663142
12.006257	-11.962045	3.622547
12.962501	-11.994717	3.595674
14.059495	-12.081257	3.592179
12.929725	-12.029387	4.286492
14.041903	-12.124536	4.313789
11.082737	-11.964956	3.656579
11.977788	-12.007131	3.625055
12.825954	-11.941615	3.567943
13.941417	-12.054345	3.571443
12.848772	-12.027823	4.271869
13.860527	-12.042350	4.269399
11.014255	-11.964441	3.646078
11.854831	-11.957016	3.598928
12.774954	-11.967509	3.563953
13.772532	-11.982359	3.537580
12.777148	-12.034537	4.260311
13.782452	-12.048917	4.256716
10.900432	-11.913946	3.620481
11.785831	-11.960591	3.589104
12.718925	-11.988499	3.558566
13.746047	-12.033609	3.540243
12.698550	-12.034241	4.246395
13.685453	-12.038393	4.238145
10.857921	-11.940834	3.618512
11.720343	-11.967350	3.580325
12.643692	-11.991052	3.547793
13.602980	-11.982281	3.512848
12.542711	-11.959809	4.206532
13.655019	-12.086133	4.240183
10.802916	-11.953819	3.612387
11.656289	-11.975221	3.571964
12.572815	-11.997315	3.538217
13.563217	-12.021353	3.512087
12.456873	-11.951138	4.190021
13.470945	-11.997114	4.194434
10.732287	-11.949157	3.601010
11.591617	-11.982109	3.563394
12.470212	-11.972717	3.519663
13.483775	-12.025009	3.501053
11.519408	-11.975363	4.203988
12.373305	-11.944080	4.174218
13.468169	-12.068937	4.205079
10.652041	-11.933254	3.586353
11.540569	-12.002812	3.559005
12.408050	-11.986409	3.512481
13.437321	-12.057796	3.498580
11.382794	-11.906238	4.167443
12.337997	-11.983339	4.174689
13.348612	-12.035845	4.179260
10.589478	-11.936680	3.577602
11.344921	-11.872015	3.509884
12.307275	-11.962269	3.494326
13.277848	-11.988435	3.466619
11.350887	-11.946024	4.169160
12.234452	-11.955932	4.152046
13.183940	-11.960902	4.139173
10.495374	-11.903971	3.558131
11.301037	-11.898965	3.507585
12.199059	-11.930089	3.473976
13.232286	-12.021193	3.464336
11.270918	-11.934977	4.153217
12.129114	-11.925959	4.128695
13.177396	-12.028873	4.148685
10.480668	-11.961067	3.565569
11.277232	-11.947092	3.511557
12.108618	-11.914539	3.458614
13.162010	-12.031264	3.455585
11.190462	-11.922846	4.137029
12.043419	-11.914589	4.111948
13.051478	-11.987544	4.120601
10.377919	-11.917371	3.543035
11.187669	-11.925292	3.495044
12.081061	-11.960594	3.461208
13.025320	-11.979875	3.429331
11.153169	-11.956413	4.136783
11.985458	-11.930229	4.104636
13.030376	-12.042073	4.125584
10.309380	-11.912262	3.532097
11.175038	-11.985307	3.502569
12.039450	-11.992761	3.459812
12.960404	-11.993774	3.421911
11.056457	-11.925879	4.114464
11.878763	-11.896801	4.080577
12.845719	-11.944697	4.078702
10.225065	-11.888351	3.515689
11.087698	-11.965022	3.486683
11.919546	-11.946401	3.435871
12.904866	-12.016085	3.416965
10.997481	-11.935504	4.106124
11.896285	-11.987681	4.099211
12.809012	-11.984051	4.078702
10.170791	-11.898897	3.509563
11.011851	-11.956542	3.474351
11.886980	-11.987088	3.437068
12.863642	-12.051592	3.415824
10.902540	-11.905555	4.084295
11.856040	-12.020663	4.098031
12.782823	-12.033306	4.082099
10.141819	-11.938968	3.512188
10.940783	-11.952759	3.463482
11.827449	-12.000469	3.430484
12.798032	-12.064065	3.408214
10.859438	-11.931778	4.081842
11.758561	-11.995217	4.077039
12.640479	-11.972666	4.048353
10.049752	-11.904413	3.492936
10.875106	-11.954441	3.454285
11.756977	-12.002398	3.420709
12.641293	-11.989772	3.376253
10.794817	-11.934122	4.071296
11.640328	-11.947709	4.048734
12.522601	-11.934114	4.022308
10.002520	-11.922481	3.489217
10.814769	-11.961635	3.446760
11.648326	-11.964690	3.399761
12.588824	-12.013588	3.372067
10.759448	-11.968626	4.071786
11.567790	-11.946364	4.036233
12.469759	-11.956972	4.017099
9.953399	-11.938123	3.484842
10.702202	-11.910380	3.422514
11.593848	-11.982060	3.394573
12.496673	-11.999117	3.357229
10.654213	-11.924948	4.045787
11.494021	-11.943286	4.023260
12.396567	-11.960006	4.005322
9.899294	-11.947565	3.478716
10.643464	-11.918358	3.415407
11.458546	-11.915161	3.365645
12.425204	-12.003975	3.347907
10.569302	-11.903209	4.027392
11.432473	-11.952510	4.014533
12.366805	-12.004766	4.007587
9.806770	-11.910084	3.459026
10.602305	-11.945836	3.413944
11.395531	-11.922633	3.357864
12.365791	-12.020142	3.341819
10.500019	-11.898508	4.014883
11.366958	-11.957242	4.004390
12.265113	-11.979358	3.986524
9.757208	-11.924256	3.454432
10.561078	-11.973173	3.412481
11.373746	-11.973168	3.362254
12.294464	-12.024388	3.332497
10.451959	-11.917546	4.010468
11.320210	-11.981464	4.000852
12.179674	-11.969141	3.970670
9.684874	-11.910225	3.441743
10.401814	-11.865799	3.372767
11.266327	-11.933191	3.341306
12.158852	-11.964958	3.305673
10.396875	-11.928363	4.003355
11.248142	-11.978591	3.988351
12.079868	-11.944132	3.950061
9.604745	-11.885996	3.426211
10.357011	-11.888071	3.370049
11.198150	-11.934115	3.331929
12.101855	-11.982174	3.300155
9.551047	-11.901236	4.026119
10.308816	-11.900849	3.983487
11.200067	-12.000966	3.984341
12.028667	-11.966711	3.945304
9.531576	-11.869757	3.413084
10.312169	-11.910179	3.367332
11.162820	-11.969848	3.332328
12.030262	-11.984602	3.290643
9.495197	-11.906291	4.017955
10.270359	-11.930216	3.982752
11.091824	-11.958323	3.958867
11.955411	-11.967037	3.933301
9.502419	-11.908095	3.415709
10.276218	-11.942501	3.367541
11.072090	-11.945826	3.316168
11.967088	-11.995043	3.283414
9.449616	-11.923999	4.014129
10.194005	-11.915260	3.967300
11.053767	-11.990866	3.958395
11.827365	-11.911733	3.903179
9.385205	-11.835505	3.386613
10.210295	-11.939784	3.357926
10.993562	-11.934333	3.303599
11.888757	-11.989874	3.271999
9.385471	-11.917990	4.002394
10.154262	-11.942786	3.966073
10.939463	-11.940173	3.930563
11.775713	-11.932710	3.898196
9.330732	-11.841250	3.380049
10.100789	-11.885359	3.333889
10.943001	-11.952827	3.299410
11.783006	-11.956367	3.252975
9.295830	-11.878958	3.979689
10.077529	-11.926490	3.950376
10.826230	-11.889609	3.902966
11.737003	-11.966696	3.897517
9.288344	-11.862138	3.377861
10.054812	-11.905085	3.330753
10.870668	-11.947205	3.288636
11.720852	-11.966511	3.245936
9.222542	-11.860096	3.963872
9.983536	-11.889050	3.927810
10.774053	-11.905475	3.897305
11.633605	-11.934296	3.875322
9.237526	-11.872095	3.372611
9.988692	-11.900672	3.320929
10.788613	-11.930351	3.274871
11.606701	-11.922923	3.224438
9.195572	-11.900577	3.967954
9.937076	-11.907714	3.923886
10.710833	-11.908850	3.887634
11.585414	-11.958039	3.871471
9.170023	-11.860239	3.361235
9.944618	-11.922249	3.318421
10.683185	-11.886869	3.253923
11.559828	-11.947892	3.221585
9.116031	-11.872747	3.949331
9.865222	-11.895609	3.909905
10.653522	-11.918468	3.880086
11.524352	-11.968268	3.863318
9.119326	-11.869746	3.355984
9.891768	-11.933128	3.312986
10.647319	-11.920319	3.254122
11.496579	-11.955702	3.214165
9.054344	-11.867603	3.938361
9.813882	-11.907864	3.904019
10.573020	-11.901694	3.864047
11.437745	-11.951495	3.846559
9.068065	-11.878277	3.350515
9.822779	-11.924170	3.302117
10.554753	-11.889906	3.236965
11.450350	-11.980982	3.211502
8.977002	-11.841389	3.920504
9.726933	-11.876416	3.883907
10.517160	-11.912222	3.856971
11.380886	-11.965356	3.839764
8.992658	-11.854732	3.336076
9.766947	-11.930792	3.295638
10.470901	-11.868591	3.222401
11.328348	-11.926366	3.187531
8.952849	-11.885093	3.925861
9.694735	-11.911465	3.885624
10.474155	-11.937127	3.854612
11.325388	-11.980397	3.833423
8.960358	-11.887721	3.337607
9.706847	-11.931874	3.287695
10.421520	-11.885924	3.218411
11.282944	-11.951784	3.185058
8.884477	-11.869929	3.911830
9.597790	-11.866529	3.861342
10.390220	-11.915006	3.837158
11.240560	-11.963978	3.817116
8.909222	-11.895629	3.332138
9.632692	-11.915210	3.274945
10.364405	-11.894200	3.212026
11.243536	-11.983480	3.184297
8.825514	-11.866872	3.901881
9.544333	-11.874761	3.854474
10.326887	-11.915983	3.827251
11.174553	-11.967082	3.807151
8.795789	-11.819576	3.303260
9.541582	-11.876856	3.256342
10.301565	-11.895571	3.203847
11.121017	-11.926014	3.159946
8.782171	-11.884561	3.898819
9.503017	-11.897927	3.852512
10.290280	-11.947609	3.827251
11.043701	-11.899930	3.774991
8.753104	-11.837875	3.300853
9.497168	-11.896138	3.253624
10.246484	-11.905582	3.198061
11.067026	-11.941355	3.155000
8.682720	-11.825714	3.870758
9.446581	-11.901967	3.844418
10.157524	-11.866907	3.791398
10.975443	-11.899389	3.764119
8.712122	-11.858383	3.299103
9.393770	-11.840947	3.230632
10.171057	-11.891537	3.185891
11.011050	-11.954311	3.149483
8.635002	-11.836674	3.865655
9.345183	-11.848684	3.817928
10.155071	-11.937985	3.804135
10.964553	-11.961007	3.772952
8.671098	-11.878750	3.297353
9.348318	-11.858192	3.227497
10.161182	-11.954043	3.194271
10.894112	-11.900416	3.126463
8.579921	-11.837275	3.857237
9.297426	-11.862803	3.813268
10.036211	-11.871864	3.773236
10.880576	-11.942749	3.756646
8.618000	-11.882390	3.291008
9.300435	-11.872189	3.223525
10.072607	-11.923779	3.177911
10.827820	-11.901105	3.117902
8.462762	-11.751341	3.820756
9.237756	-11.861441	3.803702
9.989115	-11.889951	3.769226
10.802044	-11.929865	3.742151
8.446305	-11.721153	3.239159
9.229127	-11.855909	3.211402
9.996285	-11.907344	3.165342
10.752409	-11.891306	3.106678
8.359153	-11.682886	3.790143
9.167502	-11.846026	3.789722
9.931414	-11.895178	3.761207
10.747150	-11.942676	3.735809
8.383040	-11.708928	3.228658
9.174761	-11.860964	3.205132
9.949663	-11.925918	3.162150
10.685034	-11.889918	3.097736
8.313187	-11.694291	3.785551
9.135253	-11.879474	3.791438
9.885566	-11.914373	3.757669
10.703317	-11.967607	3.733318
8.326716	-11.705966	3.220782
9.126409	-11.873548	3.200951
9.874252	-11.909617	3.149781
10.615155	-11.885300	3.088034
8.249938	-11.681041	3.773051
9.064625	-11.862767	3.777213
9.776634	-11.856922	3.730072
10.616078	-11.943603	3.715653
8.260353	-11.688427	3.208969
9.045421	-11.843205	3.185274
9.757286	-11.842297	3.124045
10.553876	-11.889911	3.080805
8.185737	-11.665930	3.760041
9.007082	-11.862726	3.768383
9.746371	-11.894377	3.732431
10.571648	-11.967356	3.712935
8.211558	-11.695347	3.203937
9.001950	-11.861552	3.182766
9.745119	-11.901745	3.131826
10.512153	-11.916344	3.079283
8.133873	-11.667985	3.752643
8.981156	-11.904233	3.772798
9.704310	-11.917441	3.730308
10.466123	-11.921414	3.688701
8.160008	-11.698075	3.197811
8.962573	-11.885210	3.181721
9.675781	-11.891302	3.121252
10.474249	-11.947062	3.078902
8.082623	-11.670628	3.745499
8.906795	-11.881310	3.756855
9.584566	-11.844418	3.698229
10.401324	-11.921174	3.678736
8.109073	-11.701401	3.191904
8.899680	-11.877434	3.172315
9.616456	-11.892739	3.113870
10.422069	-11.961376	3.074336
8.036915	-11.681032	3.740907
8.812969	-11.831610	3.732573
9.546965	-11.872253	3.697757
10.293872	-11.871345	3.653596
8.026656	-11.658712	3.173527
8.842759	-11.877229	3.165000
9.548622	-11.883230	3.103696
10.310775	-11.907204	3.052268
7.969940	-11.660133	3.726366
8.769131	-11.848462	3.729384
9.483197	-11.867324	3.687143
10.246593	-11.890328	3.649746
7.981485	-11.669590	3.169808
8.773710	-11.860276	3.153294
9.484605	-11.878011	3.094718
10.226808	-11.883716	3.038190
7.923266	-11.668531	3.721264
8.701151	-11.832354	3.715894
9.434658	-11.881142	3.682426
10.180289	-11.886938	3.639102
7.935774	-11.679495	3.165870
8.719907	-11.863499	3.147024
9.405484	-11.853321	3.080752
7.872831	-11.671142	3.714376
8.650510	-11.839424	3.709762
9.386725	-11.895536	3.677944
10.131146	-11.903280	3.634572
7.882982	-11.678714	3.159088
8.681739	-11.887826	3.146397
9.349658	-11.857497	3.074368
7.807383	-11.651062	3.700345
8.607313	-11.856493	3.706819
9.312408	-11.876100	3.663084
10.074451	-11.910509	3.627325
7.821574	-11.664753	3.148806
8.552187	-11.786183	3.112535
9.310214	-11.882270	3.073371
7.755528	-11.650813	3.692692
8.524960	-11.819157	3.686952
9.264580	-11.890050	3.658603
10.030342	-11.932414	3.624607
7.775472	-11.673264	3.144649
8.449076	-11.719554	3.088080
9.241810	-11.869799	3.062797
7.714414	-11.666486	3.690141
8.371766	-11.682138	3.636180
9.181654	-11.858484	3.640205
9.928743	-11.885389	3.601053
7.726161	-11.676719	3.139180
8.388026	-11.710440	3.078883
9.138793	-11.812069	3.040652
7.654698	-11.653731	3.678661
8.308333	-11.669071	3.624162
9.117378	-11.850397	3.629119
9.882278	-11.903803	3.597429
7.665112	-11.662044	3.128897
8.329379	-11.704249	3.070522
9.120429	-11.863357	3.046637
7.606756	-11.658536	3.672794
8.261857	-11.679468	3.619502
9.045566	-11.831992	3.614967
9.825876	-11.910023	3.590182
7.622896	-11.675701	3.126272
8.281576	-11.712979	3.066132
9.053652	-11.851569	3.036462
7.554651	-11.656665	3.664885
8.213722	-11.687311	3.614106
9.021568	-11.875938	3.619920
9.754708	-11.897932	3.577499
7.567926	-11.669559	3.118396
8.230987	-11.717527	3.060698
9.000068	-11.856654	3.030677
7.513619	-11.671657	3.662334
8.149523	-11.671916	3.601597
8.952305	-11.860125	3.606711
9.699703	-11.905150	3.570704
7.509366	-11.657449	3.108989
8.177650	-11.717864	3.054218
8.968371	-11.890469	3.032273
7.462670	-11.671030	3.654936
8.099309	-11.676153	3.595220
8.905381	-11.873540	3.602465
9.652713	-11.921983	3.566854
7.468308	-11.672213	3.106801
8.119931	-11.711556	3.046066
8.919508	-11.901461	3.028083
7.411796	-11.670199	3.647538
8.052997	-11.685780	3.590560
8.834651	-11.854833	3.588549
9.548928	-11.868065	3.541941
7.418855	-11.673659	3.101113
8.049015	-11.685675	3.032898
8.830865	-11.858823	3.010327
7.372862	-11.687977	3.646007
7.990820	-11.672033	3.578786
8.779733	-11.856890	3.581001
9.521596	-11.908715	3.545338
7.366339	-11.669961	3.094112
7.998768	-11.689330	3.027463
8.764717	-11.845686	3.000152
7.315921	-11.676947	3.635548
7.927713	-11.656413	3.566523
8.749651	-11.892380	3.583596
9.438965	-11.879913	3.528126
7.321690	-11.678451	3.090393
7.954071	-11.700875	3.024119
8.718466	-11.859099	2.996761
7.269335	-11.682097	3.630191
7.884859	-11.670237	3.563334
8.669538	-11.859545	3.565669
9.386782	-11.888939	3.522237
7.268290	-11.672696	3.082955
7.891866	-11.686322	3.014086
8.662390	-11.858887	2.989978
7.220244	-11.682959	3.623558
7.840374	-11.681493	3.559410
8.624547	-11.874292	3.562131
9.310582	-11.867105	3.507290
7.218074	-11.671703	3.076829
7.828736	-11.669874	3.003635
8.586829	-11.831479	2.976411
7.163123	-11.670444	3.612843
7.782987	-11.673228	3.549599
8.548269	-11.845534	3.545620
9.244785	-11.857974	3.496192
7.165889	-11.667185	3.069829
7.782051	-11.677562	2.999455
8.555648	-11.864922	2.978207
7.118730	-11.678330	3.608506
7.728937	-11.669570	3.541259
8.368626	-11.671895	3.485945
9.201204	-11.877041	3.493474
7.117866	-11.669122	3.064578
7.717578	-11.658164	2.988376
8.475835	-11.830575	2.963045
7.081366	-11.697633	3.607741
7.674449	-11.664881	3.532675
8.316426	-11.674561	3.479105
9.124915	-11.853503	3.478300
7.072932	-11.675882	3.060640
7.667805	-11.660543	2.982942
8.429270	-11.842153	2.959453
7.000607	-11.644722	3.584781
7.622185	-11.663213	3.525071
8.272711	-11.688915	3.475802
9.061284	-11.845855	3.467882
7.026515	-11.679967	3.056046
7.605255	-11.643077	2.972491
8.393465	-11.868758	2.959653
6.962370	-11.661994	3.583506
7.555223	-11.638568	3.510600
8.221719	-11.692777	3.469434
8.988945	-11.826297	3.454067
6.971631	-11.669638	3.047733
7.566838	-11.662253	2.971446
8.355323	-11.892047	2.959055
6.909794	-11.655020	3.574832
7.520007	-11.662507	3.510845
8.167443	-11.691657	3.461650
8.950273	-11.850709	3.453161
6.928826	-11.679222	3.044670
7.527844	-11.680480	2.970192
8.259347	-11.832454	2.937907
6.857326	-11.647834	3.566158
7.474780	-11.670828	3.506431
8.124886	-11.707079	3.458820
8.929657	-11.899147	3.459276
6.872655	-11.665955	3.035700
7.481429	-11.687048	2.966011
8.187827	-11.807008	2.925338
6.806431	-11.642940	3.558250
7.428532	-11.677347	3.501525
8.058040	-11.687148	3.445611
8.877971	-11.906185	3.453387
6.824022	-11.665087	3.030012
7.431896	-11.688490	2.960577
8.151566	-11.832073	2.925338
6.778931	-11.677983	3.562587
7.380243	-11.680412	3.495639
8.002377	-11.682952	3.437119
8.810670	-11.891887	3.441384
6.778890	-11.669936	3.025855
7.399657	-11.717024	2.962040
8.086448	-11.814976	2.914964
6.718446	-11.656002	3.549576
7.321699	-11.666869	3.484847
7.955016	-11.690576	3.432166
8.729105	-11.857680	3.423718
6.738180	-11.682227	3.023667
7.362116	-11.737185	2.961413
8.050162	-11.839729	2.914964
6.661041	-11.638796	3.538096
7.285358	-11.688454	3.484601
7.883737	-11.662595	3.416834
8.673709	-11.858461	3.416244
6.689214	-11.679982	3.017760
7.314179	-11.740626	2.956605
8.001734	-11.846507	2.910575
6.612405	-11.636478	3.531208
7.214256	-11.653874	3.467677
7.845210	-11.682694	3.415655
8.582316	-11.809375	3.394502
6.629715	-11.658886	3.007041
7.265261	-11.742220	2.951380
7.954978	-11.855540	2.906784
6.568596	-11.642394	3.526872
7.169329	-11.661086	3.463262
7.796389	-11.687305	3.409994
8.508413	-11.783531	3.379554
6.577604	-11.650281	2.999602
7.224595	-11.756956	2.949498
7.890850	-11.838306	2.896610
6.515363	-11.631279	3.517433
7.123415	-11.666479	3.458357
7.750297	-11.695778	3.405513
8.386489	-11.690075	3.345356
6.508431	-11.610824	2.984288
7.182378	-11.769048	2.946990
7.818789	-11.808535	2.883442
6.469779	-11.633468	3.512075
7.077536	-11.671699	3.453451
7.696212	-11.691903	3.397493
8.329666	-11.686402	3.336976
6.472305	-11.629884	2.984069
7.135593	-11.773466	2.942601
7.767447	-11.809544	2.877856
6.434057	-11.653262	3.512075
7.023190	-11.662630	3.444376
7.649669	-11.699193	3.392776
8.282516	-11.696005	3.332446
6.420550	-11.620647	2.976631
7.107507	-11.808708	2.945945
7.730644	-11.832498	2.877657
6.374108	-11.628857	3.498810
6.973942	-11.661656	3.437754
7.568219	-11.652518	3.372491
8.230341	-11.698258	3.325878
6.375952	-11.624035	2.972474
7.067734	-11.824582	2.944482
7.673501	-11.824103	2.869876
6.328234	-11.629672	3.493197
6.925261	-11.661325	3.431377
7.521897	-11.659350	3.367773
8.181020	-11.704294	3.320443
6.341193	-11.645256	2.972912
6.985003	-11.768003	2.925043
7.603211	-11.794879	2.857108
6.288389	-11.641375	3.490901
6.882066	-11.669991	3.427698
7.478227	-11.670099	3.364235
8.132295	-11.710937	3.315234
6.313324	-11.679248	2.976631
6.944397	-11.781795	2.923162
7.578614	-11.836305	2.861497
6.232996	-11.623972	3.479932
6.823205	-11.651731	3.416170
7.431431	-11.675771	3.359282
8.067567	-11.694141	3.303456
6.259008	-11.664170	2.967880
6.900809	-11.790385	2.920027
7.493886	-11.783430	2.843142
6.192308	-11.633651	3.477126
6.777192	-11.655011	3.411019
7.391421	-11.691945	3.357395
8.001917	-11.675452	3.291226
6.219065	-11.675566	2.965911
6.851336	-11.788673	2.914383
7.439384	-11.777369	2.836160
6.150715	-11.641480	3.473809
6.731224	-11.658117	3.405868
7.337946	-11.686584	3.349375
7.951259	-11.678208	3.285111
6.180935	-11.690278	2.964817
6.801940	-11.786768	2.908739
7.389156	-11.777726	2.830773
6.095212	-11.622618	3.462584
6.680960	-11.653482	3.398510
7.291773	-11.692549	3.344658
7.903389	-11.684798	3.280129
6.115114	-11.652161	2.950378
6.759426	-11.796551	2.906022
7.326559	-11.757925	2.820598
6.059525	-11.641263	3.462584
6.629830	-11.646964	3.390662
7.221582	-11.659513	3.328854
7.845230	-11.675843	3.270843
6.057699	-11.629327	2.939877
6.692738	-11.763684	2.892854
7.283232	-11.768682	2.817805
6.000704	-11.615128	3.449319
6.573555	-11.630957	3.380115
7.177122	-11.667542	3.324845
7.776928	-11.651249	3.257254
6.066357	-11.733669	2.961536
6.647958	-11.768835	2.889092
7.234778	-11.770936	2.813017
5.955776	-11.615414	3.443962
6.542111	-11.658678	3.382322
7.129640	-11.670433	3.319419
7.736302	-11.667747	3.255216
6.022311	-11.736598	2.957598
6.608472	-11.783205	2.887628
7.201694	-11.798095	2.814214
5.916604	-11.626738	3.441921
6.485080	-11.640585	3.371285
7.087250	-11.681451	3.316353
7.683325	-11.665397	3.247969
5.975648	-11.734150	2.952347
6.554688	-11.771812	2.879895
7.136001	-11.771533	2.802643
7.632511	-11.637611	3.797403
5.865215	-11.613764	3.432737
6.441829	-11.646852	3.367360
7.035831	-11.677336	3.309041
7.612305	-11.635120	3.233021
5.930378	-11.734140	2.947753
6.503403	-11.764479	2.873206
7.076605	-11.754753	2.793465
7.586240	-11.644806	3.792139
5.817859	-11.608364	3.425849
6.391135	-11.639368	3.359512
6.986999	-11.677185	3.302909
7.570734	-11.649436	3.230529
5.886475	-11.736580	2.943815
6.466809	-11.783518	2.872997
7.034977	-11.767157	2.791271
7.530561	-11.637247	3.782136
5.776620	-11.614904	3.422532
6.345652	-11.641045	3.354361
6.946673	-11.691047	3.300786
7.527564	-11.661151	3.227359
5.846093	-11.745848	2.941627
6.416591	-11.777541	2.866726
6.991340	-11.776046	2.788278
7.476567	-11.631891	3.772923
5.735824	-11.622167	3.419471
6.297450	-11.637438	3.347739
6.893489	-11.683011	3.292530
7.477031	-11.661232	3.221017
5.807005	-11.757604	2.940096
6.376241	-11.789429	2.864845
6.946221	-11.782245	2.784687
7.433058	-11.642577	3.768974
5.690785	-11.620605	3.413859
6.253460	-11.641331	3.343324
6.822733	-11.644573	3.275783
7.430756	-11.667686	3.216488
5.769617	-11.772736	2.939440
6.308586	-11.750348	2.850632
6.890238	-11.769675	2.776707
7.389038	-11.652291	3.764762
5.650881	-11.629312	3.411308
6.202663	-11.632232	3.335230
6.780134	-11.653691	3.272481
7.382428	-11.670672	3.211052
5.717683	-11.757913	2.931345
6.258250	-11.742894	2.844152
6.858037	-11.797535	2.778303
7.340915	-11.655314	3.758445
5.599219	-11.613497	3.401613
6.153794	-11.626359	3.328117
6.730738	-11.650877	3.265877
7.331043	-11.668523	3.204258
5.673951	-11.759580	2.927407
6.215791	-11.749937	2.841226
6.816911	-11.810033	2.776308
7.302053	-11.672873	3.756865
5.551463	-11.605326	3.394215
6.112235	-11.634026	3.324928
6.688193	-11.659670	3.262575
7.289538	-11.681871	3.201766
5.631948	-11.764611	2.924344
6.151527	-11.715272	2.828266
6.758720	-11.792635	2.767331
7.257551	-11.681290	3.752390
5.509614	-11.609200	3.390389
6.060376	-11.621778	3.316098
6.633152	-11.646357	3.253140
7.246481	-11.692589	3.198596
5.583269	-11.755392	2.917781
6.099285	-11.702870	2.820741
6.716693	-11.803094	2.764936
7.210027	-11.684618	3.746336
5.469852	-11.617300	3.387838
6.007313	-11.606739	3.306533
6.583518	-11.642122	3.246299
7.200874	-11.699005	3.194292
5.541771	-11.760991	2.914937
6.050323	-11.696338	2.814680
6.661651	-11.790373	2.757156
7.167088	-11.695167	3.742651
5.429684	-11.624391	3.385031
5.969018	-11.619940	3.305061
6.541109	-11.650401	3.242997
7.138532	-11.677828	3.182515
5.501943	-11.769981	2.912968
6.014411	-11.714845	2.814680
6.611065	-11.785117	2.751171
7.105093	-11.674247	3.728963
5.382207	-11.615551	3.377633
5.926736	-11.625243	3.301382
6.490668	-11.644101	3.235685
7.089024	-11.677193	3.176400
5.462113	-11.778839	2.910999
5.971782	-11.720173	2.811544
6.554853	-11.769388	2.742791
6.594220	-10.878829	2.465176
7.050780	-11.665442	3.719223
5.340084	-11.617953	3.373552
5.879225	-11.620016	3.294760
6.444562	-11.645254	3.230496
7.042102	-11.680537	3.171418
5.394143	-11.726395	2.893935
5.932267	-11.731457	2.809872
6.504489	-11.763717	2.736806
6.528916	-10.846020	2.453191
6.998077	-11.658895	3.710273
5.291981	-11.607008	3.365643
5.834413	-11.619805	3.289609
6.401318	-11.651344	3.226722
6.982717	-11.662809	3.160773
5.353281	-11.732236	2.891309
5.886598	-11.730373	2.805274
6.463653	-11.775027	2.734811
6.457326	-10.801957	2.438733
6.948444	-11.657107	3.702903
5.257143	-11.624951	3.366153
5.793980	-11.628104	3.286911
6.353908	-11.649599	3.220825
6.939437	-11.671619	3.157376
5.309216	-11.730825	2.886934
5.844915	-11.736997	2.802557
6.422339	-11.785337	2.732617
6.421149	-10.816652	2.437591
6.890043	-11.640180	3.690794
5.223432	-11.645436	3.367429
5.748825	-11.626707	3.281515
6.306571	-11.647674	3.214929
6.885769	-11.662659	3.149223
5.265608	-11.730144	2.882777
5.808446	-11.753998	2.802348
6.374496	-11.783439	2.727629
6.369986	-10.805854	2.430742
6.854788	-11.662095	3.691057
5.197898	-11.684376	3.374062
5.703733	-11.625141	3.276119
6.257465	-11.642144	3.208088
6.838133	-11.663563	3.143787
5.222055	-11.729307	2.878621
5.767191	-11.761226	2.799839
6.317917	-11.764955	2.718851
6.345731	-10.840597	2.434167
6.796607	-11.644744	3.678948
5.156562	-11.687883	3.370490
5.659130	-11.624281	3.270968
6.202505	-11.625277	3.198182
6.792026	-11.666810	3.139031
5.180528	-11.732777	2.875558
5.711400	-11.738414	2.790224
6.260589	-11.744506	2.709674
6.308003	-10.852376	2.432455
6.745853	-11.639665	3.670788
5.105564	-11.669100	3.360541
5.608682	-11.611035	3.262384
6.151346	-11.615052	3.190162
6.743040	-11.664825	3.132916
5.138637	-11.735207	2.872276
5.672809	-11.750597	2.788970
6.205738	-11.728146	2.701494
6.271734	-10.866576	2.431313
6.699044	-11.641075	3.664734
5.068585	-11.682048	3.359776
5.568843	-11.619446	3.259931
6.108900	-11.620967	3.186624
6.694129	-11.662649	3.126801
5.090173	-11.722276	2.865275
5.610118	-11.712383	2.775802
6.169727	-11.747131	2.701494
6.223722	-10.860213	2.425606
6.657076	-11.650683	3.661312
5.027754	-11.685997	3.356459
5.523594	-11.616339	3.254289
6.065576	-11.625007	3.182614
6.651083	-11.670438	3.123404
5.044538	-11.715431	2.859806
5.571640	-11.724239	2.774548
6.114634	-11.729510	2.693115
6.181150	-10.863043	2.421991
6.597975	-11.629936	3.648413
4.993396	-11.704924	3.357480
5.478416	-11.613065	3.248648
6.019605	-11.623714	3.177189
6.588385	-11.643317	3.110721
4.998226	-11.706623	2.853899
5.529388	-11.728010	2.771412
6.050701	-11.694255	2.680745
6.138135	-10.864860	2.418186
6.557529	-11.641718	3.645781
4.949552	-11.701487	3.352122
5.432900	-11.608744	3.242762
5.971921	-11.618791	3.170821
6.552633	-11.663475	3.110721
4.959244	-11.714714	2.852149
5.487995	-11.733403	2.768695
6.007633	-11.698816	2.677553
6.087484	-10.852816	2.411337
6.494471	-11.612945	3.630513
4.912133	-11.713050	3.351102
5.386237	-11.601616	3.236139
5.926532	-11.618014	3.165631
6.492622	-11.640141	3.099170
4.917239	-11.715478	2.848649
5.451149	-11.748411	2.768277
5.945016	-11.664809	2.665583
6.048427	-10.861149	2.409055
6.447573	-11.612572	3.624196
4.872834	-11.720031	3.348806
5.347374	-11.611041	3.234177
5.889544	-11.633540	3.164924
6.448386	-11.644667	3.095094
4.866278	-11.694472	2.839898
5.403222	-11.739317	2.762216
5.771654	-11.411052	2.603537
6.010802	-10.871922	2.407342
6.410984	-11.630609	3.623669
4.823958	-11.703636	3.339877
5.304073	-11.610639	3.229517
5.844227	-11.632451	3.159735
6.406061	-11.652446	3.091923
4.821446	-11.687698	2.834647
5.354997	-11.729151	2.755945
5.440776	-10.839317	2.469270
6.366473	-11.634143	3.618668
4.777058	-11.691528	3.332224
5.264426	-11.618026	3.227064
5.792034	-11.617277	3.150771
6.356750	-11.647251	3.085355
4.772639	-11.670824	2.826990
5.310112	-11.725928	2.751346
5.351136	-10.742811	2.443534
6.323842	-11.640904	3.614719
4.739351	-11.701649	3.330949
5.218425	-11.611132	3.220687
