x	y	z
-6.082179	9.267790	0.412100
-6.315029	9.671385	1.277642
-6.922600	9.807255	1.208140
-6.200231	9.504629	0.837141
-6.870566	9.736424	0.764757
-6.036254	9.259617	0.410911
-6.769654	9.653302	1.186611
-7.405573	9.779445	1.119410
-6.813738	9.719051	0.761747
-7.256736	9.589851	0.657622
-5.993696	9.256283	0.409945
-6.203353	9.628902	1.266977
-6.748538	9.686271	1.188113
-6.996520	9.298405	1.061885
-6.148811	9.553396	0.838097
-6.831229	9.807878	0.767063
-6.967449	9.266501	0.633980
-5.962026	9.269586	0.409722
-6.230034	9.735795	1.278521
-6.724452	9.715111	1.189115
-6.931584	9.271174	1.056342
-6.169967	9.651199	0.845013
-6.559203	9.479197	0.739779
-6.937194	9.285434	0.633816
-5.919034	9.265095	0.408719
-6.166547	9.702015	1.271595
-6.620762	9.628296	1.175997
-6.186839	9.743328	0.851413
-5.878802	9.264648	0.407902
-6.583335	9.637061	1.174595
-6.192030	9.817938	0.856269
-5.841293	9.268269	0.407270
-6.097820	9.734623	0.847367
-6.517063	9.606057	0.744967
-5.778896	9.231935	0.404893
-6.190481	9.940601	1.295342
-6.514067	9.662424	1.172792
-6.105330	9.813407	0.852590
-6.334185	9.398431	0.727355
-7.136002	9.800096	0.662918
-9.362964	11.931391	0.685524
-5.746325	9.242831	0.404595
-6.510968	9.722045	1.177599
-7.052530	9.741010	1.097418
-7.636119	9.781987	1.014802
-7.063176	9.762888	0.658933
-7.396181	9.484859	0.543651
-5.722666	9.268070	0.404930
-6.177231	10.056315	1.305457
-6.476151	9.734519	1.176698
-6.923751	9.625168	1.081969
-9.724605	12.536476	1.297456
-7.055337	9.815321	0.661007
-5.679056	9.260878	0.403852
-6.416632	9.709517	1.171290
-8.949243	12.521801	1.404487
-7.509631	9.742614	1.005918
-6.898104	9.658968	0.649050
-7.340891	9.534020	0.543877
-5.648538	9.274844	0.403704
-6.407562	9.760764	1.175096
-6.848994	9.645546	1.079515
-7.503947	9.797258	1.009178
-5.612644	9.273295	0.799621
-6.896173	9.719174	0.651671
-5.607644	9.271608	0.402812
-7.451421	9.780834	1.457923
-6.289001	9.644526	1.158773
-6.807889	9.650239	1.077697
-7.457557	9.798820	1.006977
-6.275926	9.627411	0.737538
-6.838132	9.700296	0.648995
-7.268348	9.560592	0.542839
-5.551388	9.242509	0.400806
-7.403996	9.780687	1.454509
-6.751958	9.633566	1.073517
-7.445495	9.845502	1.009423
-5.624132	9.422308	0.809479
-6.794020	9.700783	0.647630
-7.011974	9.282336	0.525816
-5.511744	9.240615	0.399989
-6.965651	9.260534	1.373971
-5.475002	9.227557	1.186829
-6.277618	9.757404	1.167685
-6.968004	9.273092	0.948539
-5.502140	9.282522	0.796016
-6.135760	9.539838	0.727931
-6.761945	9.718303	0.647412
-6.948081	9.256667	0.523152
-5.480313	9.252323	0.399766
-6.903915	9.237316	1.367377
-5.481985	9.304255	1.194525
-6.208006	9.714576	1.160275
-6.909112	9.253696	0.944383
-5.457953	9.272715	0.793735
-6.082824	9.521615	0.725113
-6.461270	9.347207	0.621367
-6.855744	9.192255	0.518320
-5.435689	9.241529	0.398577
-5.458936	9.330467	1.195734
-6.184038	9.742817	1.161377
-9.531539	12.848072	1.308215
-5.396265	9.232590	0.788879
-6.208639	9.784594	0.743686
-6.555222	9.545602	0.633215
-5.403279	9.251259	0.398280
-6.174282	9.793727	1.165182
-9.491485	12.876451	1.308133
-6.165821	9.783334	0.742149
-6.621569	9.705891	0.642497
-5.368353	9.256555	0.397797
-6.173776	9.859848	1.170790
-6.523456	9.618145	1.060522
-9.710466	13.258502	1.343913
-6.507732	9.602175	0.634307
-5.325966	9.248734	0.396757
-7.091156	9.734714	1.428016
-6.163464	9.910849	1.174595
-6.570709	9.752086	1.073063
-7.138099	9.809227	0.992062
-6.120955	9.845560	0.744006
-7.012615	9.647400	0.539091
-5.278717	9.232064	0.395345
-5.709983	9.195246	0.298557
-7.089786	9.795842	1.433786
-6.229453	9.307093	1.021991
-7.043152	9.741428	0.983015
-6.420936	9.600426	0.631577
-6.998776	9.690736	0.540310
-5.246422	9.241264	0.395048
-5.671776	9.196554	0.298033
-7.080684	9.856889	0.992470
-6.377086	9.598456	0.630157
-6.889806	9.601777	0.534169
-5.216574	9.254704	0.394936
-5.611686	9.161913	0.296351
-7.026083	9.834312	1.433079
-6.337158	9.602142	0.629120
-6.657348	9.338170	0.518365
-5.184252	9.263689	0.394639
-5.588227	9.186773	0.296600
-6.847005	9.646088	1.402583
-6.885745	9.710715	0.973479
-6.279750	9.578951	0.626335
-6.802468	9.603927	0.531956
-5.146100	9.262079	0.393896
-5.526936	9.149115	0.294835
-6.886629	9.765245	1.416830
-6.826646	9.690241	0.969323
-5.117937	9.271438	0.781228
-6.257960	9.609885	0.627100
-6.844260	9.726055	0.537556
-5.110903	9.265573	0.393376
-5.492670	9.155742	0.294504
-6.867751	9.812390	0.979429
-6.225194	9.624009	0.626772
-6.795500	9.719989	0.536065
-5.069493	9.257545	0.392373
-5.464043	9.171692	0.294477
-5.489712	9.265379	1.083872
-6.248825	9.718382	1.054342
-6.901911	9.925881	0.988639
-5.499225	9.284391	0.692515
-6.190781	9.635502	0.626281
-6.492674	9.347780	0.514437
-5.037249	9.266031	0.392076
-5.379382	9.092914	0.291416
-5.444106	9.253021	1.080467
-6.208796	9.721561	1.052616
-5.459584	9.282294	0.691106
-6.146151	9.630881	0.624752
-6.494602	9.412056	0.516875
-4.987441	9.241867	0.390404
-5.357536	9.119718	0.291747
-5.438278	9.308339	1.084973
-6.209348	9.788496	1.057796
-6.662665	9.708365	0.962884
-5.000950	9.328271	0.780787
-6.140630	9.687643	0.627209
-6.535170	9.533285	0.522429
-4.951042	9.242150	0.389773
-5.344139	9.161152	0.292546
-4.992837	9.372283	1.174625
-6.220165	9.872379	1.064793
-6.568844	9.634882	0.953593
-6.494084	9.535950	0.521481
-4.915626	9.244061	0.389215
-5.291457	9.135120	0.291195
-4.967312	9.393708	1.175395
-6.069400	9.698939	1.044073
-6.553227	9.675619	0.955630
-6.505661	9.616230	0.524777
-4.881179	9.247610	0.388732
-5.258422	9.142645	0.290920
-4.899205	9.334097	1.166050
-5.567262	9.733699	1.128532
-6.085350	9.791099	1.051980
-6.505151	9.668390	0.952940
-6.442694	9.586395	0.522068
-4.836089	9.230675	0.387395
-5.229357	9.156999	0.290864
-5.671017	9.986067	1.155769
-6.494289	9.716476	0.955712
-6.409925	9.601131	0.521797
-4.801753	9.233942	0.386912
-5.231808	9.226912	0.292574
-5.499613	9.753809	1.126930
-6.482090	9.762925	0.958320
-4.747432	9.191227	0.763130
-5.821796	9.503972	0.609463
-6.373261	9.609929	0.521210
-4.770652	9.243302	0.386689
-5.159341	9.164524	0.290092
-6.383514	9.678765	0.948132
-4.708292	9.184449	0.761365
-5.975803	9.822916	0.628738
-6.383867	9.690334	0.524506
-4.736804	9.247221	0.386243
-5.136565	9.189907	0.290396
-5.125965	9.222949	1.061942
-6.410594	9.785007	0.956608
-4.697730	9.233517	0.764234
-5.167618	9.300951	0.682844
-5.925501	9.807873	0.626608
-6.126550	9.362138	0.505722
-4.693467	9.232314	0.385018
-5.076335	9.147935	0.288576
-6.285409	9.658440	0.942345
-5.946241	9.910772	0.632014
-6.138632	9.443709	0.509109
-4.670072	9.256484	0.385426
-5.067540	9.198487	0.289679
-6.175130	9.552961	0.930201
-5.086006	9.287843	0.679578
-5.502340	9.235013	0.587841
-6.235345	9.657202	0.519584
-4.635388	9.258258	0.384906
-4.997565	9.137690	0.287280
-5.095050	9.369383	1.073357
-5.502274	9.292266	0.985458
-6.233028	9.707727	0.943405
-5.046525	9.283238	0.678104
-5.488218	9.275912	0.589370
-6.067089	9.460174	0.507980
-4.598959	9.256327	0.384237
-4.976185	9.165278	0.287666
-5.071480	9.394601	1.074459
-5.440929	9.253303	0.979552
-6.227332	9.764620	0.947072
-4.531995	9.184937	0.755553
-5.051670	9.361031	0.682652
-5.442031	9.262574	0.587459
-6.035890	9.475373	0.507799
-4.567888	9.265015	0.384014
-4.932392	9.151464	0.286756
-5.040284	9.405731	1.073958
-5.397953	9.245012	0.976916
-6.191478	9.774417	0.946176
-4.530546	9.253435	0.760040
-5.400002	9.255940	0.585985
-5.972073	9.438974	0.504864
-4.532855	9.265520	0.383457
-4.890145	9.140111	0.285929
-5.054859	9.502844	1.083271
-6.102018	9.698883	0.937047
-5.869735	9.340526	0.498633
-4.484333	9.238030	0.381748
-4.829261	9.093271	0.283999
-5.023823	9.514788	1.082870
-6.087550	9.742070	0.939411
-4.479744	9.293637	0.761070
-4.874928	9.235914	0.670227
-5.850572	9.373744	0.499446
-4.455536	9.250844	0.381711
-4.806468	9.117772	0.284302
-4.915630	9.379457	1.065747
-5.777574	9.320327	0.495653
-4.426273	9.262666	0.381637
-4.773374	9.122732	0.283999
-4.778010	9.185296	1.042015
-4.792843	9.216955	0.666705
-5.222965	9.210332	0.578996
-5.759427	9.355023	0.496556
-4.384135	9.247308	0.380448
-4.729699	9.107172	0.283061
-6.187038	10.107104	0.969078
-4.404212	9.356129	0.762836
-4.767290	9.236937	0.667089
-5.364182	9.527359	0.597888
-5.710897	9.340261	0.494840
-4.343410	9.234491	0.379371
-4.700821	9.119862	0.283006
-4.737564	9.248854	0.666897
-5.735101	9.444834	0.499446
-4.315058	9.247772	0.379371
-4.664169	9.117333	0.282482
-4.727546	9.296285	1.049625
-4.296836	9.275293	0.754081
-4.693790	9.233099	0.664719
-5.761812	9.554776	0.504322
-4.279950	9.246458	0.378776
-4.631651	9.122686	0.282207
-4.211309	9.164284	0.744002
-5.101837	9.259740	0.578122
-5.590815	9.335862	0.491860
-4.242806	9.240473	0.377996
-4.613536	9.156493	0.282813
-4.690911	9.366041	1.054231
-5.149744	9.407113	0.978643
-5.534811	9.295922	0.884722
-5.041301	9.216655	0.574464
-5.502915	9.253370	0.486622
-4.203253	9.228891	0.376993
-4.592576	9.184909	0.283254
-4.907485	9.873999	1.109707
-5.505251	9.311143	0.884559
-5.092095	9.377742	0.583528
-5.468404	9.259886	0.486080
-4.166691	9.223530	0.376250
-4.531496	9.132692	0.281214
-4.876729	9.888117	1.109607
-5.391882	9.183595	0.870866
-5.444518	9.284375	0.486487
-4.135514	9.229886	0.375990
-4.506106	9.151932	0.281379
-4.855991	9.922693	1.111810
-5.103377	9.529610	0.986458
-5.438478	9.328387	0.883010
-4.099343	9.217096	0.744150
-4.534506	9.269052	0.662221
-5.402938	9.278590	0.485313
-4.101496	9.229745	0.375470
-4.439831	9.087574	0.278981
-4.846387	9.980506	1.116616
-5.360445	9.270907	0.484048
-4.070340	9.235884	0.375210
-4.415854	9.109248	0.279229
-4.850347	9.141208	0.186954
-4.021528	9.193649	0.740250
-5.300145	9.231862	0.481159
-4.037183	9.237340	0.374764
-4.393519	9.134463	0.279587
-4.801779	9.117122	0.186159
-4.757171	9.083032	0.935658
-4.007194	9.237966	0.742825
-4.419316	9.248264	0.657802
-4.830983	9.231803	0.569768
-5.285154	9.271513	0.482378
-4.005645	9.242347	0.374467
-4.381403	9.181280	0.280607
-4.749236	9.084848	0.185202
-4.758162	10.032779	1.117517
-3.972134	9.234642	0.741575
-4.463170	9.414173	0.668626
-5.232574	9.245084	0.480165
-3.975693	9.250920	0.374318
-4.337388	9.161250	0.279587
-4.718118	9.093163	0.185075
-3.931655	9.218347	0.739294
-4.760521	9.234646	0.568130
-5.211037	9.273286	0.480797
-3.944158	9.255720	0.374021
-4.309261	9.174514	0.279587
-4.699811	9.126263	0.185455
-4.750535	9.277120	0.951107
-3.897140	9.215669	0.738117
-4.738989	9.262542	0.568949
-5.129510	9.194139	0.475876
-3.906021	9.244763	0.373093
-4.263784	9.150542	0.278457
-4.667695	9.132626	0.185292
-4.291240	9.271008	0.655625
-5.112412	9.229932	0.476914
-3.873006	9.245643	0.372647
-4.241143	9.175375	0.278815
-4.613421	9.095185	0.184244
-5.168012	9.386579	0.876246
-3.815640	9.179550	0.733335
-4.178662	9.100932	0.642688
-4.661846	9.251319	0.566492
-5.077813	9.234193	0.476327
-3.831208	9.225181	0.371346
-4.185476	9.128373	0.276995
-4.598533	9.135195	0.184768
-3.940584	9.562808	0.762983
-4.661578	9.321841	0.569932
-5.047066	9.245344	0.476101
-3.797181	9.223030	0.370789
-4.172349	9.173927	0.277988
-4.567804	9.143893	0.184660
-4.610640	9.282987	0.945837
-3.835801	9.390206	0.748269
-5.000115	9.226532	0.474340
-3.769623	9.236487	0.370864
-4.123221	9.140214	0.276582
-4.516194	9.110387	0.183703
-5.080455	9.431991	0.876083
-3.782644	9.341844	0.743487
-4.526216	9.191714	0.560267
-4.950014	9.201359	0.472263
-3.735646	9.234113	0.370306
-4.097201	9.157383	0.276720
-4.481161	9.109845	0.183413
-3.714220	9.254374	0.735616
-4.089359	9.202595	0.646274
-4.924114	9.220908	0.472489
-3.703580	9.236255	0.369935
-4.049625	9.126053	0.275396
-4.456700	9.130738	0.183558
-4.808952	9.060662	0.838835
-4.047826	9.184962	0.644161
-4.443595	9.165404	0.556991
-4.883637	9.213023	0.471315
-3.672642	9.241073	0.369675
-4.035700	9.170457	0.276361
-4.424744	9.136269	0.183395
-3.692115	9.365130	0.742605
-4.026821	9.213797	0.645314
-4.854884	9.227079	0.471270
-3.638048	9.236492	0.369043
-3.984356	9.129656	0.274762
-4.381537	9.118259	0.182763
-4.006112	9.240055	1.013576
-4.962019	9.489209	0.875675
-4.019964	9.275553	0.648772
-4.444905	9.313249	0.564308
-4.824240	9.237502	0.471044
-3.607150	9.241093	0.368783
-3.971018	9.175782	0.275782
-4.358275	9.141587	0.182962
-3.980103	9.257787	1.014177
-3.558967	9.192304	0.727155
-3.987942	9.279590	0.648196
-4.402637	9.297964	0.562561
-4.779327	9.220330	0.469419
-3.573735	9.239068	0.368263
-3.918802	9.131886	0.274100
-4.339614	9.174799	0.183359
-3.930612	9.220529	1.008770
-3.548252	9.248805	0.730760
-3.944196	9.255977	0.645698
-4.354986	9.270758	0.560104
-4.757872	9.248275	0.470096
-3.540724	9.237857	0.367780
-3.882548	9.124550	0.273521
-4.271096	9.102081	0.181643
-3.491866	9.186003	0.724948
-3.908790	9.251488	0.644545
-4.315135	9.259639	0.558629
-4.718120	9.240585	0.468967
-3.507753	9.236533	0.367297
-3.848319	9.121682	0.273080
-4.257919	9.146867	0.182276
-3.869978	9.238584	0.642816
-4.662655	9.201551	0.466258
-3.469898	9.221997	0.366294
-3.819159	9.130679	0.272997
-4.210136	9.117224	0.181427
-4.205321	9.162102	0.919937
-3.430206	9.193240	0.723845
-3.823244	9.206175	0.639742
-4.649214	9.245264	0.467748
-3.444032	9.239154	0.366554
-3.785768	9.129425	0.272611
-4.180063	9.125552	0.181336
-3.845964	9.337989	1.016380
-3.437600	9.300070	0.731422
-4.159860	9.145357	0.549402
-4.594064	9.205853	0.465039
-3.412209	9.240302	0.366183
-3.753181	9.129903	0.272280
-4.145016	9.122859	0.181029
-4.147385	9.184103	0.919573
-4.557414	9.190868	0.838917
-3.767816	9.232232	0.639934
-4.123571	9.139873	0.548310
-4.571119	9.230647	0.465580
-3.382814	9.247912	0.366071
-3.708177	9.099718	0.271040
-4.117008	9.135533	0.181029
-3.826667	9.455487	1.026594
-3.345789	9.225358	0.723918
-4.532645	9.224005	0.464542
-3.350341	9.246972	0.365625
-3.681740	9.114759	0.271150
-4.083249	9.135341	0.180776
-3.300599	9.120121	0.006602
-3.816532	9.514278	1.031701
-3.673585	9.161625	0.633465
-4.499071	9.227093	0.464000
-3.317906	9.245920	0.365180
-3.634810	9.078683	0.269744
-4.055203	9.147825	0.180776
-3.262481	9.101964	0.006581
-3.700205	9.306817	1.007969
-3.289789	9.247594	0.724065
-3.652831	9.191400	0.634746
-4.035655	9.169213	0.547818
-4.425494	9.147329	0.459304
-3.281827	9.234399	0.364325
-3.624269	9.133462	0.271040
-4.028326	9.162970	0.180830
-3.234541	9.111929	0.006581
-3.667987	9.308868	1.006967
-3.260408	9.254821	0.723845
-4.029074	9.230969	0.550767
-4.382712	9.130243	0.457769
-3.250827	9.236883	0.364028
-3.589645	9.127793	0.270543
-3.977419	9.123044	0.179801
-3.212209	9.137848	0.006593
-4.009979	9.255778	0.920482
-3.232985	9.267605	0.724065
-3.645715	9.340071	0.643456
-4.007875	9.259781	0.551750
-4.396345	9.231132	0.462149
-3.218527	9.235489	0.363582
-3.568522	9.156458	0.271067
-3.947428	9.130615	0.179711
-3.187447	9.157104	0.006600
-3.959551	9.216797	0.915393
-3.203235	9.273710	0.723771
-3.603002	9.314913	0.640959
-3.945579	9.193122	0.547054
-4.325753	9.155156	0.457679
-3.188222	9.239653	0.363359
-3.538973	9.163633	0.270957
-3.904821	9.108681	0.179042
-3.151518	9.144149	0.006584
-3.171218	9.273113	0.722962
-3.576551	9.331515	0.641343
-3.921267	9.214371	0.547600
-4.347253	9.274215	0.462962
-3.154691	9.234260	0.362765
-3.501196	9.149241	0.270213
-3.879595	9.127058	0.179169
-2.731080	8.003875	0.005756
-3.140835	9.277131	0.722520
-3.479526	9.162386	0.628982
-3.887544	9.213479	0.546835
-4.291822	9.229536	0.460072
-3.123785	9.236322	0.362468
-3.464250	9.136572	0.269523
-3.842644	9.117727	0.178753
-2.701392	7.997058	0.005746
-3.111091	9.282941	0.722226
-3.495329	9.289770	0.636988
-3.883537	9.283395	0.550275
-4.248840	9.210910	0.458491
-3.092895	9.238281	0.362171
-3.435500	9.145286	0.269468
-3.806559	9.110100	0.178374
-2.667330	7.976856	0.005725
-3.462297	9.284377	0.997254
-3.852257	9.279408	0.916847
-3.076630	9.274457	0.720828
-3.410345	9.148965	0.626613
-3.830938	9.237159	0.546835
-4.209339	9.199375	0.457272
-3.062023	9.240138	0.361873
-3.405335	9.150162	0.269303
-3.779357	9.123583	0.178410
-2.639703	7.975508	0.005718
-3.420350	9.258556	0.993349
-4.233986	9.315815	0.836798
-3.040696	9.261112	0.719063
-3.395050	9.194023	0.628982
-4.211648	9.279561	0.460614
-3.032415	9.245690	0.361725
-3.371023	9.143684	0.268806
-3.747550	9.125885	0.178229
-2.611175	7.971215	0.005710
-3.792990	9.297339	0.916302
-3.009803	9.262810	0.718474
-3.341802	9.135978	0.624307
-3.751954	9.205937	0.543614
-4.142151	9.201346	0.456098
-2.985524	9.197920	0.359496
-3.336439	9.136142	0.268282
-3.722927	9.145675	0.178392
-4.109146	9.130583	0.086855
-2.581157	7.962066	0.005697
-2.978318	9.262505	0.717738
-3.715464	9.197036	0.542413
-4.112274	9.210362	0.455918
-2.563679	7.981589	0.311647
-3.308394	9.146335	0.268282
-3.687369	9.138509	0.178031
-4.082337	9.145886	0.086881
-2.550303	7.949951	0.005683
-2.945049	9.256394	0.716561
-3.685375	9.203757	0.542140
-4.081166	9.216540	0.455601
-2.534942	7.976082	0.311127
-3.271552	9.131975	0.267566
-3.641493	9.105219	0.177164
-4.041306	9.129107	0.086603
-2.520152	7.939628	0.005670
-2.910050	9.244457	0.714943
-3.290659	9.259442	0.630647
-3.634653	9.158406	0.538809
-4.042026	9.204322	0.454382
-2.505364	7.967616	0.310496
-3.247532	9.153274	0.267896
-3.611331	9.110771	0.177055
-4.014485	9.144210	0.086629
-2.492486	7.936828	0.005663
-4.027242	9.234408	0.823839
-2.523763	8.104054	0.626145
-3.261904	9.268552	0.630583
-3.609462	9.176948	0.539246
-4.026532	9.245988	0.455827
-2.482095	7.979082	0.310644
-3.211813	9.141503	0.267262
-3.586653	9.130182	0.177218
-3.957274	9.089553	0.085996
-2.466641	7.939662	0.005659
-4.006013	9.263185	0.825306
-2.514156	8.161319	0.629971
-3.231155	9.271919	0.630135
-3.584554	9.196351	0.539737
-3.998146	9.258298	0.455827
-2.483761	8.071664	0.313950
-3.191307	9.173028	0.267896
-3.556086	9.134621	0.177091
-3.937692	9.120931	0.086178
-2.444034	7.952928	0.005663
-3.560160	9.207676	0.900853
-3.954400	9.221388	0.820497
-2.492012	8.178533	0.630706
-3.193905	9.256318	0.628406
-3.613527	9.355405	0.548419
-3.949669	9.223686	0.453524
-2.464514	8.097411	0.314656
-3.162498	9.180886	0.267841
-3.526605	9.141757	0.177019
-3.903001	9.117341	0.086030
-2.428929	7.991006	0.005685
-4.002530	9.413249	0.836472
-2.465183	8.180412	0.630265
-3.161943	9.255686	0.627701
-3.507715	9.165018	0.536625
-3.920181	9.233001	0.453389
-2.442540	8.114503	0.315028
-3.112053	9.125263	0.265939
-3.487832	9.124516	0.176477
-3.861727	9.097976	0.085736
-2.411023	8.020446	0.005701
-3.489105	9.191174	0.897127
-2.436941	8.177423	0.629456
-3.128097	9.249271	0.626613
-3.504010	9.240157	0.540392
-3.868193	9.188820	0.450635
-2.423621	8.142071	0.315808
-3.083083	9.131927	0.265856
-3.460531	9.137043	0.176513
-3.826815	9.093191	0.085579
-2.393529	8.051769	0.005718
-3.453529	9.182262	0.895219
-3.925093	9.390732	0.832315
-2.411560	8.183904	0.629382
-3.094003	9.241791	0.625460
-3.492853	9.296664	0.543068
-3.839599	9.199723	0.450589
-2.404273	8.168642	0.316551
-3.058855	9.152719	0.266187
-3.429321	9.139192	0.176351
-3.810836	9.133497	0.085848
-2.376429	8.084978	0.005736
-2.385882	8.189349	0.629235
-3.064066	9.246503	0.625140
-3.453169	9.277392	0.541321
-3.825870	9.246536	0.452305
-2.394558	8.228752	0.318594
-3.008157	9.093729	0.264202
-3.396737	9.137486	0.176116
-3.790823	9.164550	0.086030
-2.353009	8.097032	0.005739
-2.358814	8.189921	0.628720
-3.035061	9.253964	0.625012
-3.393600	9.203626	0.536406
-3.795967	9.254534	0.452125
-2.383667	8.285999	0.320526
-2.624742	8.017064	0.232686
-3.366269	9.141297	0.175990
-3.743720	9.129878	0.085597
-2.332574	8.119592	0.005750
-2.300635	8.081060	0.619818
-3.005732	9.260384	0.624819
-3.362265	9.205552	0.535915
-3.743100	9.205984	0.449190
-2.712462	9.538994	0.368672
-2.580414	7.964217	0.230921
-3.335125	9.143128	0.175827
-3.717951	9.146878	0.085649
-2.278425	8.023779	0.005678
-3.698391	9.162772	0.808027
-2.973340	9.257210	0.623987
-3.338423	9.228031	0.536625
-3.743966	9.289695	0.452712
-2.717792	9.670412	0.373427
-2.551085	7.956867	0.230480
-3.295167	9.120405	0.175195
-3.692114	9.163806	0.085701
-2.639383	9.404650	0.006649
-3.659896	9.148165	0.805745
-2.939787	9.250121	0.622898
-3.319526	9.264549	0.538154
-3.660231	9.162911	0.445984
-2.711376	9.762474	0.376659
-2.522430	7.951316	0.230094
-3.266834	9.129529	0.175177
-3.650261	9.140730	0.085380
-2.609181	9.407885	0.006645
-3.666713	9.247367	0.813488
-2.537218	8.069103	0.542842
-3.272722	9.222933	0.535151
-3.651593	9.223326	0.448377
-2.687495	9.792911	0.377513
-2.497126	7.956156	0.230012
-3.242817	9.150818	0.175393
-3.614840	9.133291	0.085206
-2.569734	9.377268	0.006618
-2.066854	6.633765	0.957852
-2.515414	8.086379	0.543483
-3.241763	9.225394	0.534714
-3.605034	9.187987	0.446119
-2.700587	9.960249	0.383643
-2.473594	7.966644	0.230094
-3.194863	9.104118	0.174310
-3.590089	9.152716	0.085285
-2.533113	9.356150	0.006598
-2.047660	6.643861	0.958398
-3.269732	9.386507	0.907033
-3.579884	9.192608	0.806723
-2.662580	9.928239	0.758275
-2.491768	8.097873	0.543739
-3.202944	9.205119	0.532967
-3.582622	9.213901	0.446842
-2.667431	9.958836	0.383271
-2.462055	8.016240	0.231307
-3.166261	9.111988	0.174274
-3.549675	9.131998	0.084990
-2.517315	9.412180	0.006632
-3.257804	9.445448	0.911758
-3.560276	9.225863	0.808679
-2.652282	10.012520	0.764087
-2.478535	8.143667	0.546301
-3.175339	9.216790	0.533076
-3.547153	9.206205	0.445939
-2.628687	9.936058	0.382083
-2.449072	8.062014	0.232410
-3.133737	9.108423	0.174021
-3.521641	9.142846	0.084990
-2.487916	9.417925	0.006630
-3.517360	9.198575	0.805337
-2.625085	10.034118	0.765117
-2.457278	8.163656	0.547133
-3.144791	9.219873	0.532694
-3.509985	9.193712	0.444810
-2.628253	10.059131	0.386503
-2.436119	8.108741	0.233541
-3.107067	9.121780	0.174093
-3.483948	9.128383	0.084755
-2.446894	9.379068	0.006598
-3.493360	9.220506	0.806315
-2.564604	9.927219	0.756362
-2.435637	8.182634	0.547902
-3.113295	9.220018	0.532148
-3.500141	9.253025	0.447158
-2.550695	9.886202	0.379557
-2.414931	8.128634	0.233899
-3.072997	9.113268	0.173750
-3.454157	9.134351	0.084712
-2.417110	9.382658	0.006595
-3.067391	9.166218	0.882042
-3.456650	9.208786	0.804359
-2.547199	9.986257	0.760261
-2.402068	8.161347	0.545980
-3.079296	9.212479	0.531165
-3.471737	9.263720	0.447158
-2.526273	9.917221	0.380448
-2.392517	8.144637	0.234147
-3.043441	9.117911	0.173659
-3.416645	9.119623	0.084478
-2.390038	9.396812	0.006600
-2.658915	9.137421	0.610730
-3.057291	9.240843	0.532257
-3.435650	9.253724	0.446164
-2.475607	9.844487	0.377365
-2.397349	8.254653	0.237098
-2.653812	8.032587	0.152833
-3.392130	9.139437	0.084565
-2.355354	9.380824	0.006584
-3.409038	9.254138	0.806478
-2.461822	9.904914	0.752904
-3.026440	9.242588	0.531820
-3.386210	9.207028	0.443410
-2.459356	9.908289	0.379519
-2.348566	8.180301	0.234754
-2.627292	8.034988	0.152724
-3.358209	9.133845	0.084417
-2.325841	9.385094	0.006581
-3.039752	9.369303	0.898854
-2.606536	8.043582	0.462367
-3.362050	9.228638	0.443952
-2.417058	9.867257	0.377662
-2.307630	8.131692	0.233155
-2.589392	8.002106	0.151947
-3.337014	9.162897	0.084591
-2.289435	9.361101	0.006560
-2.974159	9.263854	0.887858
-3.346094	9.258010	0.805011
-2.395369	9.896570	0.751139
-2.578492	8.041082	0.461766
-3.330331	9.229512	0.443500
-2.409313	9.967874	0.381228
-2.625774	9.362046	0.268200
-2.557817	7.988112	0.151532
-3.295654	9.136407	0.084252
-2.260470	9.367109	0.006559
-3.325736	9.290752	0.806968
-2.377041	9.954313	0.754964
-2.549583	8.035631	0.461002
-3.300319	9.234982	0.443274
-2.386370	10.007297	0.382454
-2.598374	9.374874	0.268338
-2.523030	7.963515	0.150918
-3.260880	9.127641	0.084079
-2.224773	9.344815	0.006539
-2.842911	9.045367	0.865230
-3.302212	9.315003	0.808190
-2.516843	8.017692	0.459527
-3.268304	9.234705	0.442778
-2.357945	10.024299	0.382826
-2.570128	9.384731	0.268393
-2.497391	7.967402	0.150846
-3.221522	9.105551	0.083784
-2.195636	9.349650	0.006537
-2.530114	8.137326	0.777625
-3.269327	9.312865	0.807130
-2.289287	9.854084	0.746283
-2.492233	8.025376	0.459527
-3.232358	9.223005	0.441739
-2.393122	10.315735	0.393673
-2.539758	9.386781	0.268227
-2.472935	7.975026	0.150846
-3.197869	9.127659	0.083897
-2.168747	9.364136	0.006543
-2.504844	8.144098	0.777534
-3.206379	9.224003	0.798573
-2.661147	9.935633	0.660108
-2.470239	8.041575	0.460019
-3.197169	9.213059	0.440791
-2.359012	10.312313	0.393265
-2.510173	9.391632	0.268145
-2.449336	7.985443	0.150900
-3.164608	9.122312	0.083758
-2.144238	9.389268	0.006556
-2.477818	8.145075	0.776898
-2.635502	9.962081	0.661325
-2.456006	8.083509	0.461984
-3.162072	9.202985	0.439843
-2.284711	10.130386	0.386058
-2.470632	9.358695	0.266987
-2.432663	8.018753	0.151387
-3.128810	9.109281	0.083550
-2.119815	9.415314	0.006569
-2.449374	8.141195	0.775808
-3.199549	9.389730	0.811206
-2.188526	9.829958	0.742899
-2.590799	9.916049	0.657738
-2.438091	8.113957	0.463295
-3.142187	9.237232	0.441017
-2.201574	9.903229	0.377142
-2.436108	9.343984	0.266352
-2.416670	8.054908	0.151929
-2.727407	8.020638	0.073488
-2.085069	9.395415	0.006551
-2.421830	8.140081	0.774990
-3.168178	9.391947	0.810554
-2.564852	9.941345	0.658891
-2.431388	8.182656	0.466789
-3.104906	9.220320	0.439753
-2.652169	12.105311	0.460691
-2.408177	9.354318	0.266435
-2.393937	8.068994	0.152056
-2.697683	8.013804	0.073349
-2.050466	9.375391	0.006532
-2.396283	8.145562	0.774808
-3.109360	9.311814	0.802811
-2.535572	9.954002	0.659211
-2.403740	8.181455	0.466298
-3.078184	9.234540	0.439978
-2.144352	9.933156	0.377773
-2.378236	9.356818	0.266297
-2.368607	8.074382	0.152020
-2.665497	7.999275	0.073141
-2.020008	9.373817	0.006527
-2.370169	8.149050	0.774445
-3.008215	9.101762	0.783902
-2.517678	10.012061	0.662542
-3.053281	9.254376	0.440475
-2.129874	10.014952	0.380634
-2.350978	9.369888	0.266463
-2.344938	8.085452	0.152092
-2.633426	7.984624	0.072932
-1.995185	9.398556	0.006540
-2.339653	8.137142	0.772627
-2.639130	8.082353	0.384304
-2.738551	13.074036	0.496578
-2.321980	9.376086	0.266435
-2.324806	8.108947	0.152399
-2.605504	7.982208	0.072837
-1.965318	9.399739	0.006537
-3.021683	9.334348	0.802322
-2.614628	8.091362	0.384349
-2.698427	13.082377	0.496578
-2.286559	9.355977	0.265663
-2.306187	8.138166	0.152814
-2.577622	7.979697	0.072742
-1.941916	9.432170	0.006555
-2.560583	8.007999	0.380014
-2.002409	9.860791	0.374058
-2.261828	9.379468	0.266132
-2.621502	9.360244	0.175610
-2.549779	7.977090	0.072646
-1.911380	9.430242	0.006549
-2.905932	9.168394	0.786510
-2.529977	7.996769	0.379111
-2.709964	13.558274	0.514001
-2.234430	9.392197	0.266297
-2.594107	9.373061	0.175701
-2.522580	7.976295	0.072568
-1.880874	9.428216	0.006544
-2.537823	8.093113	0.693596
-2.500358	7.988286	0.378343
-2.683205	13.642025	0.516861
-2.203778	9.391222	0.266077
-2.557954	9.353971	0.175195
-2.496007	7.977316	0.072507
-1.846739	9.407448	0.006526
-2.515344	8.108476	0.694248
-2.406931	10.375566	0.683548
-2.487362	8.033136	0.380104
-2.637732	13.631551	0.516155
-2.172702	9.388201	0.265801
-2.533416	9.377219	0.175484
-2.470339	7.981115	0.072473
-1.814645	9.396378	0.006514
-2.495134	8.131400	0.695552
-2.354170	10.291457	0.677528
-2.659699	9.949244	0.563161
-2.470312	8.065564	0.381278
-2.594030	13.629762	0.515784
-2.140775	9.381179	0.265415
-2.493807	9.344374	0.174725
-2.447305	7.993437	0.072516
-1.786929	9.407795	0.006518
-2.469886	8.138064	0.695471
-2.264185	10.039681	0.660492
-2.640633	10.000800	0.565618
-2.448451	8.082666	0.381730
-2.551835	13.635692	0.515709
-2.116372	9.407207	0.265966
-2.470479	9.372284	0.175104
-2.428276	8.019091	0.072681
-1.746491	9.351304	0.006475
-2.445480	8.147512	0.695634
-2.598097	9.963444	0.563052
-2.434823	8.127461	0.383491
-2.509085	13.638543	0.515524
-2.078629	9.373643	0.264836
-2.433402	9.347889	0.174508
-2.416285	8.068653	0.073063
-1.718335	9.359570	0.006477
-2.418487	8.148288	0.695063
-2.569260	9.978136	0.563434
-2.414701	8.151176	0.384259
-2.463853	13.627493	0.514818
-2.045806	9.361422	0.264312
-2.409192	9.372741	0.174833
-2.394926	8.087534	0.073167
-1.689968	9.366765	0.006479
-2.395442	8.162364	0.695634
-2.525843	9.935650	0.560595
-2.411866	8.234283	0.387826
-2.414692	13.593663	0.513258
-2.016865	9.366677	0.264284
-2.380180	9.379119	0.174815
-2.372351	8.102520	0.073236
-1.661572	9.373875	0.006480
-2.371777	8.174460	0.696041
-2.770325	9.566793	0.450183
-2.370915	13.589194	0.512812
-1.980860	9.338595	0.263319
-2.353823	9.396075	0.174996
-2.604667	8.998252	0.081260
-1.632977	9.379914	0.006481
-2.327452	8.114635	0.690336
-2.452588	9.901531	0.557810
-3.895905	13.609913	0.639874
-2.328875	13.594435	0.512738
-1.954857	9.357348	0.263678
-2.328345	9.416841	0.175249
-2.683509	9.378254	0.084617
-1.606382	9.397694	0.006490
-3.856852	13.631414	0.640326
-2.285666	13.592646	0.512403
-1.926342	9.364281	0.263705
-2.287356	9.374402	0.174328
-2.654724	9.386442	0.084617
-1.572083	9.370033	0.006467
-3.821738	13.667234	0.641454
-2.244116	13.600580	0.512440
-1.900976	9.386802	0.264174
-2.255777	9.369711	0.174111
-2.625915	9.394543	0.084617
-1.543816	9.377772	0.006469
-2.311888	9.715808	0.546126
-3.770744	13.646156	0.639919
-2.204934	13.623184	0.513035
-1.873341	9.398472	0.264340
-2.224248	9.364914	0.173894
-2.594950	9.394844	0.084547
-1.514719	9.380489	0.006468
-2.411665	10.275003	0.577139
-3.728597	13.656697	0.639874
-1.586712	9.997881	0.376325
-1.842382	9.393385	0.264036
-2.197787	9.381429	0.174075
-2.566905	9.405655	0.084573
-1.485933	9.385093	0.006468
-2.405801	10.393251	0.583364
-2.700947	10.013543	0.468786
-1.555724	10.000727	0.376250
-1.807116	9.365622	0.263099
-2.160892	9.353056	0.173425
-2.529967	9.383556	0.084304
-1.457440	9.391583	0.006469
-0.963226	6.287853	0.703632
-0.961011	6.291735	0.469517
-2.369904	10.383060	0.582381
-2.665070	10.002477	0.467883
-0.961127	6.305767	0.237125
-1.775951	9.358355	0.262740
-2.132631	9.361592	0.173461
-2.501681	9.393206	0.084322
-0.957073	6.294655	0.004334
-0.944668	6.295693	0.704182
-2.624112	9.950452	0.841525
-0.942294	6.298599	0.469811
-2.651912	10.077265	0.470999
-0.942662	6.314616	0.237348
-1.745765	9.355898	0.262520
-2.104777	9.371993	0.173533
-2.463440	9.365056	0.084001
-0.938052	6.299540	0.004335
-0.924482	6.292662	0.703522
-0.921810	6.293567	0.469223
-2.708094	12.209592	0.683886
-2.577513	9.918087	0.463187
-0.921984	6.308579	0.237014
-1.718316	9.368093	0.262713
-2.074718	9.372549	0.173425
-2.432685	9.364826	0.083931
-0.917855	6.296451	0.004331
-0.905031	6.294485	0.703412
-0.902356	6.295378	0.469149
-2.666998	12.201260	0.682957
-2.557998	9.968524	0.465174
-0.903050	6.314346	0.237125
-1.690985	9.381190	0.262933
-2.045101	9.374962	0.173352
-2.410402	9.397430	0.084157
-0.897969	6.295277	0.004328
-0.880178	6.257861	0.699014
-0.880129	6.277376	0.467604
-2.127945	9.880348	0.552678
-0.882704	6.310159	0.236865
-1.664288	9.398146	0.263264
-2.015489	9.377283	0.173280
-2.377387	9.388301	0.084009
-0.877545	6.290079	0.004323
-2.485636	9.939451	0.463097
-1.632364	9.385481	0.262768
-1.987746	9.388312	0.173370
-2.351726	9.408162	0.084122
-1.279865	9.384122	0.006447
-2.455609	9.948970	0.463187
-1.603225	9.388473	0.262713
-1.954852	9.374791	0.173009
-2.318539	9.397858	0.083966
-1.248559	9.369171	0.006434
-2.438550	10.011781	0.465761
-1.574580	9.394334	0.262740
-1.925277	9.376827	0.172937
-2.281181	9.369949	0.083654
-1.218002	9.359075	0.006424
-1.545913	9.400107	0.262768
-1.898283	9.391510	0.173099
-2.245884	9.349680	0.083411
-1.189787	9.366735	0.006427
-1.515316	9.393949	0.262465
-1.868681	9.393367	0.173027
-2.217419	9.357499	0.083420
-1.160061	9.362402	0.006422
-1.578852	9.948776	0.646466
-2.418407	10.342160	0.480075
-1.484302	9.384732	0.262079
-1.837740	9.388262	0.172828
-2.190749	9.373021	0.083498
-1.133251	9.381801	0.006432
-1.550776	9.969351	0.647491
-2.399462	10.405016	0.482649
-1.453512	9.376399	0.261720
-1.804392	9.370293	0.172395
-2.162656	9.382621	0.083524
-1.105164	9.391193	0.006436
-0.962594	6.309754	0.642372
-0.959625	6.296188	0.408733
-2.332089	10.256469	0.475424
-0.954929	6.287478	0.175418
-1.773961	9.366943	0.172232
-2.133196	9.386287	0.083498
-1.076689	9.397520	0.006439
-0.953337	6.285862	-0.057037
-0.940144	6.292013	0.640269
-0.938978	6.290219	0.408156
-2.221514	9.910701	0.459078
-0.934753	6.284446	0.175252
-1.744849	9.370375	0.172196
-2.103077	9.386933	0.083446
-1.048185	9.403761	0.006441
-0.932432	6.277877	-0.056938
-0.919828	6.287975	0.639568
-0.917511	6.278259	0.407196
-2.670825	12.088838	0.559591
-0.915036	6.284317	0.175169
-1.713573	9.361916	0.171943
-2.074269	9.393341	0.083446
-1.018468	9.398978	0.006435
-0.912736	6.277739	-0.056911
-0.899122	6.280919	0.638567
-0.898387	6.282032	0.407260
-2.154499	9.895839	0.457769
-0.895752	6.287094	0.175169
-1.686613	9.376969	0.172124
-2.041401	9.381095	0.083281
-0.988266	9.389130	0.006426
-0.892908	6.276550	-0.056875
-0.870815	6.225459	0.403417
-2.779930	12.959664	0.599100
-0.876045	6.286843	0.175087
-1.657489	9.380130	0.172088
-2.011562	9.382426	0.083237
-0.959355	9.391124	0.006426
-0.870341	6.255490	-0.056660
-2.757093	13.048278	0.602803
-1.274741	9.357985	0.260507
-1.628190	9.382216	0.172034
-1.981528	9.382683	0.083185
-0.928370	9.372129	0.006411
-2.716234	13.052763	0.602622
-1.247344	9.371760	0.260783
-1.597383	9.375340	0.171817
-1.952326	9.386760	0.083168
-0.900663	9.385883	0.006418
-1.653994	9.865365	0.546999
-2.036308	9.938169	0.458536
-1.219616	9.383473	0.261003
-1.567623	9.374279	0.171709
-1.924923	9.399562	0.083229
-0.871771	9.387607	0.006417
-1.637820	9.956111	0.551750
-1.189564	9.377254	0.260728
-1.537237	9.369178	0.171528
-1.901017	9.429930	0.083446
-0.843055	9.391233	0.006418
-1.159194	9.367962	0.260369
-1.511345	9.391619	0.171853
-1.861568	9.382752	0.082977
-0.814326	9.394772	0.006419
-1.586842	10.030078	0.555299
-1.130089	9.368498	0.260286
-1.484706	9.410038	0.172106
-1.829900	9.373698	0.082847
-0.785249	9.394236	0.006417
-0.971582	6.236165	0.808732
-0.977154	6.287081	0.580606
-0.971889	6.267619	0.346830
-0.798089	9.868943	0.368077
-1.101342	9.371921	0.260286
-0.967650	6.257592	0.114394
-1.802076	9.384178	0.082890
-0.756104	9.392614	0.006414
-0.959330	6.284221	0.814579
-0.957561	6.288080	0.580425
-0.953105	6.273532	0.346993
-0.764940	9.834482	0.366703
-1.072470	9.374262	0.260259
-0.949945	6.270417	0.114575
-1.771793	9.381801	0.082821
-0.726975	9.390901	0.006411
-0.939899	6.286153	0.814452
-0.937825	6.288033	0.580152
-0.933119	6.271489	0.346720
-1.044037	9.380489	0.260341
-0.930557	6.272313	0.114557
-1.741541	9.379327	0.082752
-0.697716	9.387104	0.006407
-0.920753	6.289988	0.814579
-0.917809	6.285954	0.579698
-0.912867	6.267406	0.346338
-1.014715	9.378679	0.260204
-0.911453	6.276128	0.114575
-1.711680	9.378724	0.082700
-0.668843	9.388203	0.006407
-0.900467	6.285911	0.813689
-0.895280	6.266066	0.577607
-0.892085	6.259303	0.345738
-0.675692	9.860048	0.367409
-0.985415	9.376777	0.260066
-0.892334	6.279884	0.114593
-1.680781	9.372120	0.082596
-0.640241	9.393203	0.006409
-0.644590	9.849111	0.366926
-0.958367	9.396662	0.260535
-1.295145	9.319904	0.169993
-1.648723	9.358521	0.082431
-0.611680	9.399115	0.006411
-0.863512	6.231406	-0.114861
-0.617729	9.904901	0.368932
-0.930419	9.408511	0.260783
-1.266950	9.326806	0.170047
-1.621027	9.369448	0.082483
-0.582964	9.402944	0.006413
-0.588699	9.929693	0.369786
-0.901169	9.407341	0.260672
-1.240697	9.348490	0.170372
-1.591939	9.372405	0.082465
-0.554173	9.405686	0.006413
-0.556662	9.903516	0.368746
-0.872026	9.407076	0.260590
-1.214838	9.374067	0.170769
-1.561698	9.368367	0.082387
-0.525537	9.411336	0.006416
-0.842983	9.407715	0.260535
-1.186449	9.380725	0.170823
-1.535854	9.390878	0.082543
-0.496766	9.414901	0.006417
-0.812738	9.394323	0.260093
-1.156929	9.378367	0.170715
-1.509728	9.412331	0.082691
-0.467582	9.410388	0.006413
-1.574791	10.007509	0.457904
-0.783082	9.386810	0.259818
-1.126480	9.367975	0.170462
-1.477427	9.395186	0.082500
-0.438895	9.415775	0.006416
-0.978391	6.301830	0.756161
-0.975065	6.300716	0.521379
-0.970208	6.291128	0.287720
-0.433511	9.873661	0.367409
-0.754200	9.388172	0.259790
-1.098200	9.375359	0.170534
-0.966543	6.271721	0.055046
-0.410310	9.424070	0.006421
-0.959052	6.304801	0.756161
-0.955281	6.300722	0.521134
-0.950306	6.290125	0.287539
-0.404073	9.895912	0.368189
-0.725394	9.390441	0.259790
-1.069545	9.379678	0.170553
-0.948342	6.281578	0.055107
-0.381679	9.432279	0.006426
-0.938827	6.301821	0.755454
-0.933897	6.289820	0.519993
-0.929980	6.286093	0.287223
-0.373937	9.903097	0.368412
-0.696581	9.392623	0.259790
-1.040763	9.382914	0.170553
-0.928188	6.278523	0.055055
-0.352776	9.434405	0.006426
-0.917769	6.292880	0.754041
-0.916460	6.305478	0.521053
-0.909688	6.281996	0.286907
-0.344176	9.922174	0.369080
-0.667549	9.391725	0.259707
-1.010793	9.375129	0.170354
-0.909495	6.285299	0.055090
-0.323728	9.432444	0.006424
-0.895232	6.273055	0.751333
-0.892339	6.274711	0.518282
-0.881723	6.223433	0.284107
-0.310450	9.819307	0.365217
-0.639478	9.404699	0.260011
-0.982234	9.380174	0.170390
-0.888105	6.273208	0.054960
-0.294788	9.433393	0.006424
-0.280865	9.839193	0.365923
-0.610557	9.405619	0.259983
-0.952137	9.370212	0.170155
-1.296425	9.364330	0.082006
-0.265901	9.436253	0.006426
-0.252001	9.891956	0.367854
-0.581267	9.400464	0.259790
-0.922993	9.369109	0.170083
-1.266885	9.362317	0.081954
-0.236900	9.435024	0.006424
-0.220241	9.829741	0.365514
-0.552189	9.398212	0.259680
-0.895385	9.383841	0.170300
-1.241039	9.387970	0.082144
-0.207953	9.435707	0.006424
-0.191068	9.881326	0.367409
-0.523187	9.396867	0.259597
-0.867051	9.391522	0.170390
-1.213768	9.403634	0.082249
-0.179117	9.442299	0.006428
-0.161890	9.951808	0.370009
-0.494145	9.394435	0.259487
-0.839300	9.406088	0.170607
-1.185412	9.411282	0.082283
-0.150132	9.441804	0.006428
-0.130764	9.907293	0.368337
-0.464925	9.387919	0.259266
-0.810696	9.411607	0.170661
-1.153119	9.387084	0.082040
-0.121254	9.449220	0.006432
-0.100479	9.918639	0.368746
-0.435936	9.385308	0.259156
-0.781404	9.409068	0.170571
-1.122888	9.378663	0.081936
-0.092273	9.450547	0.006433
-0.069957	9.905911	0.368263
-0.406924	9.381607	0.259018
-0.752136	9.406437	0.170480
-1.094109	9.382064	0.081936
-0.063299	9.453786	0.006435
-0.039546	9.901081	0.368077
-0.378179	9.383811	0.259046
-0.722584	9.399729	0.170318
-1.066110	9.392332	0.081997
-0.034280	9.449936	0.006432
-0.377584	9.418055	-0.084559
-0.009156	9.886167	0.367520
-0.349500	9.387923	0.259128
-0.694478	9.411873	0.170498
-1.037399	9.396552	0.082006
-0.005288	9.449997	0.006432
-0.349058	9.429162	-0.084649
-0.320697	9.388951	0.259128
-0.664965	9.404983	0.170336
-1.007926	9.393726	0.081954
0.023676	9.438968	0.006425
-0.319924	9.424192	-0.084595
-0.291921	9.390890	0.259156
-0.636985	9.419947	0.170571
-0.977962	9.385833	0.081858
0.052590	9.430851	0.006419
-0.290917	9.422130	-0.084568
-0.641184	9.870419	0.540884
-0.262997	9.387745	0.259046
-0.608726	9.431835	0.170751
-0.949162	9.388789	0.081858
0.081471	9.424646	0.006415
-0.261954	9.420979	-0.084550
-0.611947	9.889281	0.541812
-0.234095	9.384510	0.258935
-0.579480	9.428668	0.170661
-0.920256	9.390662	0.081850
0.110374	9.423352	0.006415
-0.233025	9.420739	-0.084541
-0.582425	9.905067	0.542576
-0.205456	9.392179	0.259128
-0.549501	9.412435	0.170336
-0.892103	9.400409	0.081910
0.139402	9.430967	0.006420
-0.204121	9.421409	-0.084541
-0.551423	9.895841	0.541976
-0.176753	9.398763	0.259294
-0.520291	9.408087	0.170227
-0.862435	9.394139	0.081832
0.168085	9.416498	0.006411
-0.175271	9.424991	-0.084568
-0.521427	9.904466	0.542358
0.202445	9.850114	0.366257
-0.148121	9.412254	0.259652
-0.491320	9.407642	0.170191
-0.833080	9.390765	0.081780
0.196911	9.412938	0.006409
-0.146448	9.431483	-0.084622
-0.490989	9.905022	0.542303
-0.119346	9.420661	0.259873
-0.462603	9.412101	0.170245
-0.804522	9.396266	0.081806
0.226148	9.427286	0.006419
-0.117512	9.431889	-0.084622
-0.460274	9.899500	0.541921
-0.090472	9.423981	0.259955
-0.433863	9.416472	0.170300
-0.775362	9.394703	0.081771
0.254826	9.417551	0.006413
-0.088556	9.430204	-0.084604
-0.429771	9.897872	0.541757
-0.061559	9.424214	0.259955
-0.405444	9.428747	0.170498
-0.746061	9.391057	0.081719
0.283868	9.421722	0.006416
-0.059637	9.432432	-0.084622
0.322748	9.829909	0.365625
-0.032635	9.421360	0.259873
-0.376396	9.426949	0.170444
-0.716789	9.387320	0.081667
0.312739	9.419808	0.006415
-0.030702	9.433571	-0.084631
-0.368621	9.889347	0.541157
0.352761	9.824878	0.365477
-0.003730	9.419417	0.259818
-0.347362	9.425062	0.170390
-0.688132	9.391469	0.081685
0.341782	9.422801	0.006418
-0.001759	9.427621	-0.084577
-0.338450	9.895421	0.541430
0.025145	9.410387	0.259569
-0.318242	9.420088	0.170282
-0.659246	9.392539	0.081676
0.370886	9.426705	0.006422
0.027156	9.424582	-0.084550
-0.661874	9.847706	0.446119
0.413542	9.834510	0.365923
0.054038	9.414265	0.259680
-0.289279	9.419021	0.170245
-0.630628	9.397510	0.081702
0.399975	9.429519	0.006424
0.056047	9.420454	-0.084515
-0.634216	9.889567	0.447925
0.443622	9.831199	0.365848
0.082903	9.412055	0.259625
-0.260435	9.421863	0.170282
-0.601794	9.399401	0.081702
0.429175	9.434241	0.006428
0.084939	9.419238	-0.084506
-0.606612	9.936337	0.449957
0.473541	9.824800	0.365663
0.111885	9.420752	0.259873
-0.231528	9.422618	0.170282
-0.572650	9.396212	0.081659
0.458116	9.432880	0.006428
0.113860	9.420933	-0.084524
-0.574968	9.918205	0.449054
0.503783	9.825297	0.365737
0.140518	9.402373	0.259376
-0.202683	9.426283	0.170336
-0.543127	9.385945	0.081555
0.487157	9.433428	0.006430
0.142839	9.425538	-0.084568
-0.544975	9.927901	0.449415
0.537124	9.882578	0.367929
0.169255	9.395902	0.259211
-0.173818	9.429859	0.170390
-0.514274	9.386569	0.081546
0.516315	9.435882	0.006432
0.171628	9.418057	-0.084506
-0.514876	9.936511	0.449731
0.564691	9.832995	0.366146
0.197975	9.390341	0.259073
-0.144887	9.430348	0.170390
-0.485474	9.388102	0.081546
0.544280	9.417283	0.006421
0.200415	9.412488	-0.084461
0.596485	9.858149	0.367149
0.226760	9.388690	0.259046
-0.115991	9.433747	0.170444
-0.457106	9.398537	0.081624
0.572927	9.411576	0.006418
0.229242	9.409830	-0.084443
-0.453350	9.927508	0.449190
0.628249	9.880207	0.368040
0.255644	9.390948	0.259128
-0.087049	9.434059	0.170444
-0.428452	9.403890	0.081659
0.601734	9.408776	0.006417
0.258082	9.408082	-0.084434
-0.420723	9.877950	0.446887
0.658823	9.882222	0.368189
0.284817	9.402110	0.259459
-0.058093	9.432282	0.170408
-0.399642	9.406160	0.081667
0.630664	9.407883	0.006418
0.287006	9.409245	-0.084452
0.688791	9.875170	0.368003
0.313828	9.406187	0.259597
-0.029142	9.428416	0.170336
-0.370900	9.410339	0.081693
0.659874	9.410891	0.006422
0.316006	9.412318	-0.084488
-0.360760	9.898315	0.447700
0.717632	9.853076	0.367260
0.342830	9.409176	0.259707
-0.000216	9.428461	0.170336
-0.342173	9.415430	0.081728
0.688743	9.408822	0.006422
0.345064	9.416300	-0.084533
-0.330291	9.896380	0.447564
0.748236	9.855811	0.367446
0.371695	9.408079	0.259707
0.028713	9.429418	0.170354
-0.313551	9.424430	0.081797
0.717529	9.405669	0.006421
0.374229	9.422191	-0.084595
-0.299474	9.882369	0.446887
0.777447	9.840518	0.366963
0.400769	9.411888	0.259845
0.057654	9.431285	0.170390
-0.284425	9.418351	0.081737
0.746303	9.402426	0.006420
0.403433	9.427993	-0.084658
-0.268338	9.853283	0.445532
0.806652	9.826135	0.366517
0.429415	9.405622	0.259707
0.086607	9.433063	0.170426
-0.255583	9.421179	0.081754
0.774899	9.397102	0.006418
0.432356	9.426710	-0.084658
-0.238565	9.873035	0.446390
0.841120	9.874395	0.368412
0.458123	9.401265	0.259625
0.115523	9.430754	0.170390
-0.226822	9.427917	0.081806
0.804663	9.405641	0.006426
0.460737	9.414353	-0.084559
-0.208506	9.884706	0.446887
0.867808	9.830955	0.366889
0.486343	9.387835	0.259294
0.144470	9.431354	0.170408
-0.198190	9.442565	0.081928
0.832721	9.394163	0.006419
0.489878	9.417889	-0.084604
-0.180178	9.996169	0.451899
0.899328	9.843174	0.367446
0.515799	9.398277	0.259625
0.173331	9.426868	0.170336
-0.169417	9.454126	0.082023
0.861446	9.390568	0.006419
0.518659	9.414344	-0.084586
-0.147940	9.891793	0.447158
0.929241	9.837384	0.367334
0.544630	9.396650	0.259625
0.202187	9.423294	0.170282
-0.140322	9.448603	0.081971
0.891385	9.399827	0.006427
0.547772	9.416702	-0.084622
-0.117378	9.874220	0.446345
0.954080	9.779784	0.365291
0.572908	9.385955	0.259376
0.231097	9.422629	0.170282
-0.111369	9.451989	0.081997
0.918855	9.383115	0.006417
0.576476	9.411983	-0.084595
-0.087154	9.882526	0.446706
0.601637	9.383155	0.259349
0.260004	9.421875	0.170282
-0.082362	9.451286	0.081988
0.946833	9.372293	0.006412
0.604578	9.398195	-0.084488
-0.056927	9.898730	0.447429
1.014483	9.777722	0.365440
0.630355	9.380268	0.259321
0.288939	9.422033	0.170300
-0.053359	9.450494	0.081980
0.975790	9.371333	0.006413
0.633072	9.391308	-0.084443
-0.026598	9.913843	0.448106
0.659270	9.380285	0.259376
0.317844	9.421101	0.170300
-0.024368	9.451613	0.081988
1.003896	9.362330	0.006409
0.662163	9.393311	-0.084479
0.687899	9.376223	0.259321
0.346673	9.418084	0.170263
0.004631	9.454643	0.082014
1.032944	9.362187	0.006411
0.690978	9.391235	-0.084479
0.717500	9.385033	0.259625
0.375485	9.414978	0.170227
0.033634	9.453584	0.082006
1.062225	9.363942	0.006415
0.719710	9.388074	-0.084470
0.746210	9.381791	0.259597
0.404411	9.414781	0.170245
0.062630	9.452436	0.081997
1.092916	9.377524	0.006426
0.749781	9.401770	-0.084613
0.774825	9.377466	0.259542
0.433248	9.412497	0.170227
0.091610	9.450200	0.081980
1.121325	9.371149	0.006424
0.778126	9.393447	-0.084559
0.803420	9.373052	0.259487
0.462368	9.416116	0.170318
0.120564	9.446875	0.081954
1.148973	9.358732	0.006418
0.805743	9.377067	-0.084434
0.831819	9.366560	0.259376
0.491254	9.414654	0.170318
0.149657	9.453460	0.082014
1.176806	9.348217	0.006413
0.834773	9.377539	-0.084461
0.859179	9.349033	0.258963
0.520191	9.414100	0.170336
0.178659	9.452956	0.082014
1.205224	9.342579	0.006412
0.863539	9.374934	-0.084461
0.215551	9.858576	0.445713
0.887290	9.340382	0.258797
0.549187	9.414457	0.170372
0.207594	9.449364	0.081988
1.233488	9.335864	0.006410
0.892581	9.375227	-0.084488
0.912917	9.306775	0.257943
0.578128	9.413725	0.170390
0.236533	9.446684	0.081971
1.262392	9.334017	0.006411
0.921144	9.370454	-0.084470
0.275534	9.839093	0.444900
0.941364	9.302937	0.257915
0.606878	9.409911	0.170354
0.265486	9.444914	0.081962
1.291434	9.333073	0.006413
0.949888	9.367585	-0.084470
0.307736	9.903104	0.447835
0.970938	9.309947	0.258191
0.635677	9.407008	0.170336
0.294492	9.445055	0.081971
1.320622	9.333027	0.006416
0.978519	9.363631	-0.084461
0.337026	9.870164	0.446390
1.000456	9.315870	0.258439
0.664464	9.404016	0.170318
0.323433	9.443107	0.081962
1.348533	9.323983	0.006413
1.006814	9.356608	-0.084425
1.030789	9.328654	0.258880
0.693238	9.400936	0.170300
0.352254	9.438073	0.081928
1.379910	9.338597	0.006426
1.035955	9.357451	-0.084461
0.396335	9.836968	0.444990
1.064482	9.370142	0.260121
0.723149	9.412722	0.170553
0.380723	9.424959	0.081824
1.409598	9.341242	0.006430
1.064658	9.354229	-0.084461
1.095773	9.388676	0.260728
0.752581	9.417436	0.170679
0.409507	9.420749	0.081797
1.438707	9.339838	0.006432
1.093352	9.350918	-0.084461
1.123145	9.373360	0.260397
0.781552	9.416079	0.170697
0.438547	9.422445	0.081824
1.467820	9.338344	0.006434
1.122988	9.355463	-0.084533
1.218127	9.908608	0.275369
0.810265	9.411645	0.170661
0.467502	9.422054	0.081832
1.497413	9.339722	0.006439
1.151440	9.349988	-0.084515
1.218142	9.663824	0.268668
0.839136	9.409114	0.170661
0.496511	9.422573	0.081850
1.528479	9.349887	0.006449
1.177239	9.323594	-0.084308
0.867539	9.401517	0.170571
0.525863	9.428992	0.081919
1.560938	9.367840	0.006464
1.209174	9.345722	-0.084541
0.895999	9.394830	0.170498
0.554729	9.426336	0.081910
1.590507	9.367937	0.006468
1.238629	9.347916	-0.084595
0.924426	9.388057	0.170426
0.583522	9.422594	0.081893
1.616173	9.345277	0.006456
1.267840	9.348036	-0.084631
0.952415	9.377219	0.170282
0.612363	9.419761	0.081884
1.645530	9.344214	0.006458
1.296376	9.343111	-0.084622
0.982012	9.382209	0.170426
0.640648	9.408860	0.081806
1.673837	9.337153	0.006457
1.327000	9.352951	-0.084748
1.010792	9.379151	0.170426
0.669724	9.409842	0.081832
1.697091	9.302461	0.006436
1.355402	9.346857	-0.084730
1.038791	9.369050	0.170300
0.697923	9.398768	0.081754
1.735477	9.350303	0.006473
1.384511	9.345622	-0.084757
0.950619	5.045685	0.190874
1.069002	9.378733	0.170534
0.726524	9.393592	0.081728
1.752283	9.282046	0.006430
1.414522	9.350229	-0.084838
0.966094	5.042745	0.190874
1.096956	9.368458	0.170408
0.753977	9.374374	0.081581
1.795456	9.353227	0.006483
1.441828	9.336951	-0.084757
0.984426	5.054470	0.191431
1.126051	9.368027	0.170462
0.782650	9.371021	0.081572
1.824334	9.348657	0.006483
1.471089	9.336435	-0.084793
