x	y	z
-2.587709	6.413768	1.958237
-2.967562	9.314770	1.814357
-4.341525	12.068838	2.250950
-5.493701	12.355193	2.108952
-2.933165	9.205136	1.427153
-3.315302	9.225684	1.351426
-5.113209	12.743160	1.759435
-2.577309	6.444904	1.965320
-2.950203	9.359464	1.821291
-4.308445	12.093235	2.253024
-4.820903	12.103690	2.158247
-5.474109	12.413576	2.116041
-2.562487	6.465304	1.969134
-2.867910	9.196701	1.787898
-4.280826	12.133333	2.258037
-5.430457	12.417638	2.113884
-2.867791	9.194628	1.422769
-3.282340	9.313122	1.361258
-2.542288	6.472239	1.968862
-4.020749	9.252457	1.954943
-4.248130	12.159427	2.260457
-4.011327	9.249762	1.572506
-2.826445	9.160846	1.416193
-2.486470	6.387655	1.940801
-2.800703	9.178984	2.151637
-4.003611	9.290895	1.960460
-2.808269	9.203782	1.785890
-4.212415	12.177057	2.261321
-3.979808	9.254763	1.571273
-2.829512	9.271662	1.431975
-2.801002	9.281884	2.173733
-3.968144	9.286884	1.957036
-2.796778	9.267890	1.796657
-4.175994	12.192719	2.261840
-4.668471	12.152729	2.156613
-3.951008	9.266020	1.571119
-2.803912	9.289770	1.433436
-3.160249	9.237023	1.345827
-2.757723	9.240877	2.162138
-3.148759	9.282065	2.095020
-2.752306	9.222723	1.786255
-4.191387	12.361248	2.290707
-4.609757	12.110751	2.146643
-2.762949	9.256619	1.427007
-3.103294	9.162231	1.333536
-4.132131	12.310553	2.278953
-4.557263	12.084220	2.139453
-5.126281	12.229749	2.068268
-1.961922	6.647307	1.023821
-1.757835	6.039121	1.922490
-3.015247	9.071070	2.043182
-4.106455	12.359626	2.285694
-4.515334	12.085207	2.137165
-5.048545	12.148703	2.051933
-1.955098	6.699828	1.030981
-3.055442	9.206485	1.337223
-6.595721	17.681559	2.418190
-4.088516	12.432984	2.296930
-4.482345	12.110105	2.139126
-1.929598	6.688686	1.028351
-3.030583	9.226168	1.338725
-6.510500	17.617975	2.406751
-7.254152	17.634687	2.260947
-2.584879	6.283718	1.853952
-1.566239	5.499644	1.508710
-4.049439	12.442659	2.296411
-4.451283	12.140473	2.142067
-1.896046	6.648910	1.021336
-5.171847	12.683109	1.624062
-3.889597	13.639741	1.568879
-1.530588	5.444660	1.728691
-2.618773	6.422043	1.892384
-1.571103	5.581675	1.529884
-4.382697	12.067833	2.126869
-1.906770	6.765147	1.038288
-2.981196	9.267223	1.342003
-5.148541	12.737586	1.629007
-3.849081	13.656394	1.569429
-1.502102	5.406945	1.715245
-2.581343	6.386220	1.879486
-1.555008	5.590195	1.530905
-2.909348	9.125091	2.047154
-4.367691	12.142491	2.137655
-1.868221	6.707115	1.028497
-2.952150	9.274438	1.341730
-3.799165	13.639414	1.566131
-1.475634	5.375561	1.703846
-1.548357	5.633165	1.541364
-4.814188	12.079087	2.519776
-2.893380	9.176611	1.688645
-4.314196	12.110297	2.129647
-3.760113	13.661218	2.093089
-2.885295	9.161562	1.324113
-3.319074	9.332365	1.269213
-3.753609	13.637589	1.564591
-1.451625	5.352374	1.695076
-1.532334	5.642555	1.542640
-4.734909	11.986969	2.497518
-1.807246	6.647069	1.278425
-2.888090	9.258785	1.702127
-4.283258	12.141152	2.132752
-3.609993	9.159226	1.535521
-3.718442	13.673644	2.093235
-6.209174	17.629697	2.395058
-3.712013	13.650000	1.564701
-1.454501	5.428854	1.717876
-1.494221	5.569716	1.521466
-2.860144	9.264544	2.072445
-4.719225	12.055376	2.508742
-1.787354	6.654481	1.278790
-2.845441	9.221485	1.693658
-4.244362	12.149579	2.131935
-3.674422	13.677344	2.092066
-3.676822	13.686282	1.567560
-1.436371	5.427744	1.716122
-2.841703	9.306010	2.079761
-4.665884	12.027695	2.499991
-1.768947	6.667536	1.280250
-2.817424	9.231114	1.693830
-4.220290	12.200770	2.138635
-3.635741	13.700983	2.093966
-2.819339	9.248375	1.332853
-3.186744	9.228446	1.251038
-1.434221	5.487640	1.733661
-2.814270	9.318428	2.080597
-4.653972	12.107015	2.513498
-1.753468	6.691954	1.283900
-2.796490	9.264231	1.698325
-4.196903	12.254727	2.145826
-2.763046	10.542669	1.609967
-2.802391	9.294919	1.338316
-1.420486	5.504052	1.737461
-2.775873	9.294224	2.073282
-4.598985	12.074447	2.503796
-1.734899	6.704917	1.285359
-2.758476	9.240677	1.692447
-4.167523	12.291838	2.150075
-3.545161	13.698133	2.090166
-4.077576	13.676105	1.967324
-5.986957	17.688593	2.392897
-1.484824	5.827173	1.838013
-1.519242	5.946629	1.376085
-4.600394	12.190454	2.524913
-1.715781	6.715924	1.286454
-4.007195	13.575607	2.484135
-4.604773	12.229833	2.038217
-3.490628	13.660063	2.082714
-4.031397	13.674297	1.965276
-1.387620	5.516374	1.738630
-1.492161	5.916255	1.367990
-4.520685	12.091403	2.501513
-1.705027	6.760244	1.293936
-3.966355	13.590674	2.484653
-4.565849	12.240200	2.037601
-3.437088	13.624666	2.075699
-3.988595	13.683748	1.964866
-3.463293	13.728542	1.566131
-1.371611	5.524318	1.739799
-1.568062	6.306602	1.714583
-4.518348	12.199119	2.520918
-1.690929	6.792157	1.299045
-3.939385	13.653881	2.493987
-4.556016	12.329221	2.050083
-3.395511	13.636106	2.075845
-3.934251	13.653085	1.958721
-5.761725	17.553520	2.367350
-1.335311	5.449548	1.714953
-1.578201	6.431582	1.747236
-1.581645	5.538099	1.457170
-1.487495	6.054172	1.397743
-1.669614	6.795403	1.298680
-3.888562	13.634645	2.488283
-4.467564	12.204892	2.027121
-3.354132	13.648381	2.076138
-3.897773	13.684146	1.961452
-3.354559	13.650116	1.554807
-1.313416	5.432239	1.708230
-1.562557	6.453309	1.751828
-1.571231	5.566250	1.463302
-1.476961	6.091897	1.405400
-1.646905	6.792849	1.297220
-3.829611	13.585839	2.477220
-2.989912	9.284519	1.615825
-4.442223	12.251980	2.032669
-3.312943	13.661491	2.076576
-3.848524	13.670293	1.957765
-3.312196	13.658412	1.554587
-1.295191	5.429732	1.706184
-1.517714	5.440446	1.659778
-1.557012	5.581316	1.466000
-1.460081	6.103992	1.407151
-1.631089	6.818907	1.301235
-3.801657	13.646863	2.486209
-2.932659	9.203410	1.600136
-4.386915	12.216265	2.024502
-3.265030	13.646576	2.072776
-3.803380	13.670583	1.956126
-2.938562	9.238653	1.242268
-3.267039	13.654976	1.553048
-1.279184	5.436473	1.707061
-1.498976	5.437677	1.657523
-1.492326	6.332899	1.716623
-1.459274	6.184418	1.424652
-1.596839	6.767420	1.290469
-3.762385	13.667958	2.487938
-2.909749	9.229301	1.603078
-4.345773	12.219426	2.022806
-3.226328	13.670008	2.074822
-3.750130	13.641114	1.950254
-2.941468	9.346970	1.255613
-3.220108	13.643653	1.550629
-1.271795	5.480429	1.719630
-1.490103	5.470947	1.666263
-1.487774	6.401491	1.733971
-1.450689	6.233534	1.434935
-2.879269	9.222790	1.967117
-1.579190	6.785694	1.293023
-1.806581	6.642506	1.208101
-2.896696	9.287158	1.611576
-4.328286	12.289551	2.032207
-3.180113	13.661535	2.072046
-3.708002	13.651599	1.950117
-1.288253	5.629733	1.765229
-1.484030	5.515332	1.678386
-1.350194	5.891432	1.594682
-1.434832	6.252221	1.438216
-1.555259	5.785279	1.280464
-2.855876	9.247497	1.970508
-1.551547	6.760800	1.287367
-1.788238	6.655627	1.209484
-2.882151	9.341251	1.619421
-4.309433	12.356882	2.041145
-2.791145	12.159380	1.842906
-3.661738	13.646646	1.947796
-2.858954	9.283318	1.244683
-2.762080	12.032760	1.365596
-1.315803	5.832362	1.827490
-1.523785	5.733124	1.743232
-1.319540	5.839901	1.579630
-1.569879	5.911949	1.307428
-2.837224	9.288079	1.977292
-1.534052	6.779913	1.290104
-1.767810	6.661082	1.209484
-2.835624	9.291547	1.609288
-4.255699	12.324282	2.033594
-2.752518	12.162097	1.842029
-3.633812	13.710482	1.955306
-2.830459	9.292046	1.244683
-2.726467	12.046994	1.366255
-1.328628	5.974532	1.870752
-1.507164	5.741484	1.744360
-1.326842	5.957177	1.610243
-3.105561	9.041480	2.222914
-1.554463	5.927143	1.309727
-2.811266	9.305181	1.979087
-1.504041	6.743323	1.282257
-1.753360	6.689340	1.213632
-2.801404	9.281313	1.606020
-2.727039	12.223588	1.850067
-2.757641	10.535073	1.501235
-2.788777	9.256998	1.238836
-1.434891	5.535258	1.680360
-1.290938	5.880943	1.588559
-1.235817	5.621873	1.290544
-1.537987	5.938510	1.311190
-2.761386	9.242407	1.963925
-1.423606	6.476146	1.230617
-1.748131	6.753806	1.224349
-4.070912	13.638431	2.357794
-2.731801	12.424168	1.879148
-3.524330	13.634691	1.941377
-2.680032	12.188723	1.380438
-1.270345	5.882551	1.839475
-1.416951	5.535916	1.679232
-1.261442	5.831952	1.574273
-1.222489	5.643757	1.294701
-1.522911	5.955517	1.313907
-1.361894	6.287337	1.193939
-1.724963	6.749595	1.222621
-4.012574	13.595030	2.348152
-2.659317	12.273930	1.855182
-3.482483	13.645439	1.941377
-2.920652	13.480106	1.525672
-1.173090	5.514134	1.723138
-1.399490	5.538377	1.678668
-1.233267	5.787566	1.561263
-1.200077	5.623624	1.289232
-1.510616	5.983866	1.319133
-1.396360	6.543414	1.241748
-1.720632	6.819796	1.234375
-3.991850	13.679253	2.360572
-2.904774	13.608432	2.055532
-3.434794	13.633005	1.938100
-2.881564	13.499695	1.526881
-1.218536	5.815355	1.816091
-1.396191	5.597568	1.695303
-1.209348	5.761987	1.553354
-1.589087	6.370920	1.661238
-1.332151	6.337732	1.451999
-1.507620	6.050150	1.332719
-1.379110	6.561138	1.244302
-1.705414	6.847981	1.238524
-3.928261	13.616552	2.347662
-2.740886	13.036421	1.967852
-3.388889	13.627136	1.935778
-3.930534	13.651265	1.820315
-2.736860	13.017273	1.471360
-1.196437	5.798461	1.809660
-1.381993	5.613936	1.698968
-1.310264	6.339491	1.707950
-1.586219	6.443542	1.678897
-1.308943	6.323634	1.447843
-1.493956	6.074689	1.337109
-1.370533	6.621181	1.254886
-1.686983	6.863702	1.240425
-3.897830	13.668386	2.354526
-5.639869	17.362243	2.847278
-2.713514	13.105797	1.977058
-3.348718	13.644203	1.936734
-3.894336	13.683293	1.822984
-2.695298	13.017821	1.470481
-1.181688	5.817099	1.814337
-1.364537	5.617217	1.698686
-1.330140	6.536770	1.759992
-1.576741	6.490771	1.689935
-1.289146	6.325707	1.447405
-1.477849	6.089697	1.339408
-1.350017	6.624391	1.254703
-1.668471	6.879375	1.242327
-3.845708	13.644197	2.348315
-2.976221	9.258826	1.516874
-2.754901	13.514393	2.037412
-3.302879	13.638045	1.934412
-3.830582	13.617836	1.812689
-2.758981	13.534410	1.527871
-1.166836	5.835702	1.819014
-1.342825	5.602717	1.693047
-1.547163	5.524910	1.624508
-1.333436	6.657434	1.791370
-1.558628	6.503120	1.691897
-1.260329	6.282754	1.436685
-1.480791	6.184551	1.359265
-2.937058	9.210198	1.873329
-1.277281	6.367256	1.205252
-1.652400	6.905535	1.246130
-3.804889	13.659733	2.348969
-2.917554	9.172814	1.501309
-2.735224	13.631414	2.053779
-3.263785	13.659676	1.936051
-3.797286	13.660105	1.816756
-2.721942	13.565224	1.530399
-1.172005	5.956546	1.855552
-1.323643	5.598407	1.690510
-1.531746	5.535194	1.626143
-1.312631	6.659596	1.790860
-1.468628	6.211630	1.614881
-1.246718	6.315310	1.443248
-1.468554	6.217616	1.365536
-1.310106	6.636408	1.255433
-1.626002	6.888524	1.242154
-1.815899	6.597400	1.133545
-2.698565	13.665946	2.057724
-3.214363	13.637806	1.931545
-3.745113	13.634388	1.811800
-2.691672	13.631042	1.536886
-1.160813	5.996730	1.866952
-1.304282	5.593098	1.687690
-1.519579	5.557501	1.631319
-1.214699	6.263966	1.683459
-1.427328	6.120750	1.590108
-1.152361	5.933081	1.355083
-1.449028	6.220188	1.365118
-1.585772	5.825156	1.229149
-1.286741	6.624953	1.252514
-1.594141	6.847434	1.233857
-1.817914	6.684810	1.147600
-2.888823	9.279222	1.515795
-2.657191	13.677074	2.058163
-3.174975	13.658217	1.933047
-3.704305	13.649642	1.812308
-2.642258	13.600209	1.532488
-1.421935	6.183335	1.864467
-1.547938	5.730265	1.680629
-1.441350	6.267764	1.627145
-1.131956	5.925087	1.352457
-1.417239	6.169325	1.352994
-1.578072	5.867845	1.237129
-2.843765	9.209636	1.867812
-1.273974	6.668465	1.259995
-1.567175	6.826374	1.229189
-1.803028	6.711317	1.151196
-2.850745	9.256880	1.510709
-2.615033	13.684190	2.058017
-2.775373	12.107504	1.712361
-2.642720	9.857455	1.307724
-2.605185	13.632658	1.535237
-1.078241	5.759341	1.790952
-1.350344	5.955619	1.794546
-1.490411	5.585314	1.636768
-1.428116	6.298629	1.634012
-1.116835	5.944835	1.356176
-1.562075	5.880235	1.238725
-2.823527	9.244608	1.873138
-1.252965	6.669443	1.259448
-1.557967	6.883024	1.238524
-1.800143	6.783565	1.162636
-2.824923	9.274088	1.512096
-2.573951	13.697010	2.058748
-2.737122	12.111130	1.711678
-2.558759	13.616166	1.532488
-1.056759	5.741931	1.784522
-1.311138	5.866101	1.766352
-1.475230	5.597303	1.638947
-1.248692	6.772193	1.816881
-1.317644	5.895208	1.528300
-1.168948	6.329174	1.443029
-2.740407	10.444950	2.198542
-2.798842	9.265444	1.875612
-1.241783	6.723533	1.268937
-1.543921	6.919495	1.244228
-1.774570	6.770924	1.159531
-2.782777	9.237301	1.504699
-2.529581	13.692195	2.056848
-3.002820	13.478971	1.903686
-2.614561	9.997275	1.324120
-2.515709	13.617110	1.531719
-1.035733	5.726325	1.778676
-1.290658	5.858853	1.762968
-1.459748	5.608321	1.640854
-1.136359	6.270789	1.681418
-1.300386	5.903009	1.529281
-1.149002	6.329850	1.442373
-2.759162	9.236360	1.868002
-1.222906	6.736985	1.270761
-1.519300	6.908808	1.241462
-1.735250	6.704705	1.147273
-4.069293	13.659421	2.222991
-2.486855	13.695999	2.056263
-2.670831	12.164465	1.716868
-2.558827	9.908251	1.311283
-2.471967	13.614006	1.530509
-1.014814	5.710644	1.772829
-1.272270	5.860909	1.762404
-1.443493	5.616500	1.641944
-1.117624	6.277102	1.682184
-1.283092	5.910761	1.530262
-1.632855	6.373128	1.596850
-1.100794	6.171962	1.405619
-1.517367	6.997642	1.530453
-1.202059	6.739737	1.270579
-1.502686	6.934613	1.245265
-3.479172	13.614986	2.327887
-4.024295	13.661416	2.221296
-2.443608	13.696747	2.055240
-2.931998	13.552331	1.911470
-2.429665	13.618591	1.530180
-2.919355	13.514434	1.391489
-0.994000	5.694889	1.766983
-1.268128	5.929522	1.781858
-1.419155	5.592924	1.633771
-1.183478	6.767207	1.812544
-1.268399	5.930786	1.534431
-1.612103	6.373396	1.595671
-1.002545	5.722614	1.302577
-1.505698	7.048168	1.540487
-1.517391	6.008219	1.261668
-1.422592	6.663704	1.195828
-1.750789	6.940024	1.185679
-3.977391	13.656623	2.218522
-2.398673	13.687614	2.052756
-2.897221	13.593235	1.915976
-2.385813	13.614232	1.528860
-0.964893	5.630045	1.745937
-1.304319	6.191562	1.859392
-1.185131	6.901362	1.847494
-1.253195	5.948879	1.538110
-0.985315	5.727586	1.303014
-1.475610	7.012562	1.531708
-1.549912	6.217267	1.304562
-1.012158	5.883628	1.107993
-1.407208	6.692134	1.200149
-1.731634	6.953978	1.187150
-3.936294	13.671609	2.218984
-2.354823	13.684184	2.051148
-2.740510	13.054294	1.838818
-3.383789	13.619191	1.798200
-3.916890	13.631052	1.681640
-2.343528	13.618549	1.528530
-0.991879	5.896097	1.827490
-1.163631	6.903059	1.846984
-1.334781	6.433961	1.662464
-0.968063	5.732507	1.303452
-1.330666	6.421449	1.401696
-1.532937	6.230557	1.306357
-1.010639	5.984623	1.126423
-1.391464	6.719567	1.204298
-1.710056	6.958300	1.186987
-1.903217	6.687384	1.084450
-2.312170	13.687443	2.050564
-2.701249	13.066520	1.839365
-3.346951	13.649738	1.800869
-3.879122	13.657334	1.683406
-2.301240	13.622735	1.528201
-2.706151	13.111006	1.347329
-0.949487	5.751917	1.781891
-1.567320	5.518027	1.565185
-1.130454	6.834096	1.827596
-1.300678	6.367738	1.644314
-0.948717	5.724860	1.301045
-1.313891	6.439874	1.404832
-1.516820	6.247610	1.308951
-1.065894	6.431947	1.209997
-1.368284	6.711258	1.202051
-1.686840	6.955844	1.185679
-1.878945	6.679876	1.082292
-2.269358	13.689592	2.049833
-2.766062	13.590203	1.911879
-3.310190	13.681152	1.803665
-3.838277	13.672995	1.683877
-2.253095	13.591489	1.523913
-2.738036	13.474164	1.383779
-0.935199	5.775572	1.788322
-1.265434	6.293603	1.886458
-1.563160	5.568322	1.578083
-1.049548	6.468168	1.728869
-1.112586	5.533417	1.427983
-1.481171	6.173467	1.540949
-0.945240	5.814426	1.320735
-1.325513	6.600154	1.438902
-1.507690	6.294163	1.317729
-1.338773	6.671003	1.194099
-1.664574	6.957148	1.185026
-1.873262	6.738918	1.090922
-2.226554	13.691607	2.049103
-2.725522	13.604453	1.912699
-3.266129	13.682560	1.802521
-3.794187	13.677051	1.682935
-2.218406	13.641503	1.528750
-2.709369	13.545917	1.390288
-0.925424	5.828472	1.803814
-1.226751	6.199572	1.857136
-1.548132	5.580529	1.580189
-0.972114	6.109450	1.632183
-1.183110	5.979026	1.542035
-1.467596	6.200678	1.546609
-0.934925	5.864515	1.331455
-1.312653	6.641604	1.447054
-1.472148	6.230097	1.303365
-1.642542	6.959342	1.184535
-1.854934	6.753208	1.092309
-2.183604	13.692512	2.048226
-2.693161	13.660375	1.919390
-3.215497	13.655828	1.797691
-3.752471	13.689585	1.683053
-2.178110	13.658061	1.529850
-2.678751	13.609812	1.395995
-0.904008	5.808605	1.796798
-1.207358	6.201423	1.856572
-1.326939	5.664940	1.647393
-1.532789	5.591765	1.582032
-0.952471	6.106671	1.630652
-1.150310	5.908404	1.522903
-1.391790	5.961942	1.485990
-0.917681	5.872176	1.332549
-1.254191	6.449774	1.404414
-0.993292	6.355999	1.193939
-1.613578	6.931679	1.178979
-1.800307	6.633950	1.072121
-2.140822	13.694260	2.047495
-2.653879	13.682188	1.921302
-3.700331	13.663651	1.678460
-1.567568	10.027311	1.122623
-2.632822	13.596476	1.393792
-0.852593	5.591074	1.728691
-1.193199	6.230541	1.864185
-1.342687	5.812419	1.689075
-1.520923	5.615996	1.587560
-0.933586	6.108609	1.630397
-1.152965	6.020450	1.550865
-1.380904	5.998383	1.494010
-0.895230	5.846028	1.325986
-1.230539	6.433421	1.400024
-0.968876	6.326945	1.187917
-2.779139	12.106832	2.057738
-1.810392	6.753011	1.090460
-0.964390	6.295448	0.940816
-2.610405	13.682481	1.920210
-2.773623	12.111884	1.592172
-2.642359	9.877038	1.212307
-2.596495	13.632834	1.396696
-0.840521	5.627713	1.739214
-1.166976	6.196458	1.852907
-1.294933	5.685170	1.650934
-1.507176	5.633683	1.591245
-0.925863	6.185076	1.650040
-1.138437	6.044918	1.556261
-1.340554	5.905928	1.469951
-0.876422	5.842957	1.324673
-1.202481	6.392957	1.390409
-1.740671	6.553631	1.314012
-0.949752	6.331832	1.188282
-1.249531	6.648209	1.187185
-2.741765	12.114339	2.057575
-1.848343	6.980124	1.126213
-0.944484	6.294463	0.940231
-2.568599	13.691399	1.920346
-2.737107	12.123239	1.592553
-2.668364	10.098238	1.238446
-2.550079	13.616287	1.394193
-0.854522	5.844121	1.805275
-1.113724	6.015103	1.797647
-1.338619	5.961368	1.729939
-0.909407	6.205108	1.654632
-1.079468	5.830088	1.500093
-1.294631	5.785781	1.439052
-0.859627	5.853342	1.326423
-1.085772	5.871579	1.276284
-1.484237	6.644570	1.386159
-1.712586	6.528554	1.307925
-0.931607	6.343471	1.189925
-1.237540	6.697534	1.195309
-3.024882	13.558352	2.301248
-1.827419	6.987674	1.126521
-0.924593	6.293417	0.939647
-2.525504	13.693370	1.919527
-3.006306	13.508364	1.773289
-3.572160	13.688481	1.677401
-2.505410	13.608390	1.392591
-0.808548	5.650752	1.744768
-1.035485	5.690004	1.699532
-1.323650	5.980478	1.734298
-0.892150	6.220311	1.657949
-1.049599	5.767561	1.483169
-1.294873	5.871338	1.459337
-0.849578	5.911005	1.338893
-1.110946	6.112533	1.327912
-1.472272	6.687371	1.394139
-0.922492	6.418317	1.203428
-1.215051	6.690638	1.193408
-2.672678	12.155022	2.061660
-1.806714	6.996118	1.126983
-0.905562	6.298182	0.939939
-2.482245	13.694230	1.918571
-2.664794	12.149494	1.593824
-2.558775	9.929787	1.215839
-2.462763	13.611116	1.392090
-0.790678	5.649417	1.743599
-1.036432	5.796099	1.730263
-1.305501	5.985451	1.734571
-0.783459	5.584344	1.487791
-1.028828	5.753576	1.478754
-1.309255	6.024373	1.496369
-1.517830	5.917464	1.420491
-0.836058	5.946437	1.346332
-1.029782	5.766459	1.252037
-1.454449	6.704306	1.396733
-1.607784	6.285941	1.257320
-0.916760	6.520428	1.222040
-1.190193	6.670094	1.189087
-2.911341	13.436851	2.277550
-1.787195	7.009287	1.128216
-0.884444	6.288195	0.938039
-2.439525	13.697881	1.918025
-2.930068	13.557580	1.777356
-3.478063	13.670684	1.672573
-2.418903	13.606852	1.390889
-0.772823	5.648027	1.742430
-1.002710	5.708535	1.703197
-1.282078	5.965910	1.727760
-0.773681	5.640366	1.502077
-1.025931	5.840731	1.500338
-1.291987	6.034063	1.497784
-1.497994	5.915483	1.418905
-0.840136	6.111377	1.383086
-1.020027	5.814862	1.261861
-1.589213	6.293700	1.257891
-1.431345	6.705493	1.135833
-1.780153	7.072227	1.137463
-1.879227	13.664703	2.037558
-2.396464	13.699446	1.917205
-2.802740	13.163895	1.724610
-2.505781	9.977085	1.219724
-1.874157	13.627834	1.521604
-2.377660	13.617150	1.391189
-0.756252	5.656058	1.744184
-0.982746	5.697402	1.698968
-1.262972	5.966050	1.726670
-0.751877	5.609171	1.493149
-0.987244	5.723477	1.469434
-1.483854	5.936115	1.422756
-0.792929	5.902134	1.335174
-1.002016	5.817000	1.261652
-1.416313	6.727487	1.399725
-1.568235	6.291878	1.256559
-1.409954	6.705991	1.135180
-1.758685	7.078614	1.137617
-1.837691	13.673345	2.037996
-2.351070	13.687206	1.914474
-2.734858	13.041378	1.707451
-3.396028	13.699479	1.673515
-1.831544	13.627609	1.520944
-2.333350	13.609670	1.389687
-0.740506	5.670679	1.747984
-0.959175	5.664444	1.688254
-1.234843	5.922801	1.713049
-0.797550	6.091775	1.620958
-1.098679	6.488290	1.664917
-1.325491	6.381554	1.581990
-0.789799	6.018701	1.360989
-0.982698	5.811369	1.259771
-1.338973	6.458345	1.342867
-1.634519	6.644620	1.325998
-2.706938	13.073753	2.211688
-1.728960	7.051349	1.132377
-1.795604	13.677938	2.037850
-2.305938	13.675795	1.911879
-2.721915	13.180844	1.724610
-2.431065	9.937290	1.213013
-1.787269	13.614440	1.518855
-2.290594	13.610878	1.389086
-0.723831	5.678616	1.749737
-0.938961	5.650324	1.683179
-1.213570	5.911481	1.708690
-0.817468	6.396314	1.701317
-0.967681	5.823149	1.493471
-1.158513	5.664867	1.403435
-1.463531	6.011355	1.438609
-0.777158	6.066586	1.371272
-0.965184	5.816286	1.260189
-1.311117	6.423059	1.334687
-1.618990	6.669638	1.329993
-2.779140	13.633000	2.304843
-1.702904	7.038374	1.129449
-1.753004	13.678477	2.037119
-2.263000	13.676941	1.911060
-2.762685	13.588627	1.776847
-3.303284	13.684341	1.669159
-1.744860	13.614930	1.518306
-0.931193	5.711887	1.700660
-1.249177	6.181133	1.785515
-0.791500	6.347939	1.687796
-1.000351	6.136101	1.572939
-1.180636	5.864645	1.452025
-0.750071	6.001165	1.355958
-0.949221	5.830802	1.262697
-1.298741	6.463557	1.342268
-0.764078	6.113231	1.143393
-2.739631	13.653069	2.306804
-1.681303	7.043565	1.129449
-1.709681	13.672992	2.035512
-2.219600	13.675019	1.909831
-2.721956	13.601902	1.777483
-1.702342	13.614301	1.517646
-0.905485	5.663558	1.685435
-1.277321	6.421803	1.853896
-0.776806	6.389691	1.698256
-0.911270	5.699742	1.460359
-1.173781	5.924481	1.465941
-1.472885	6.215462	1.485264
-0.715956	5.874613	1.326861
-0.929941	5.824996	1.260816
-1.282896	6.487698	1.346458
-1.583227	6.701421	1.334368
-0.745438	6.116523	1.143576
-2.698113	13.663346	2.307131
-1.663535	7.065040	1.132069
-1.667245	13.674246	2.034927
-2.177636	13.681765	1.909831
-2.678680	13.602404	1.776466
-3.206539	13.650216	1.662565
-1.658040	13.598741	1.515337
-2.161948	13.610748	1.386983
-0.885134	5.647352	1.679796
-1.228044	6.274609	1.810307
-1.507284	6.416388	1.798410
-0.777673	6.564880	1.744175
-0.892879	5.696764	1.458887
-1.144071	5.868917	1.451317
-1.459795	6.245560	1.491379
-0.695628	5.857402	1.322485
-0.912065	5.827821	1.260816
-1.264858	6.501222	1.348453
-1.566892	6.724414	1.337983
-0.722495	6.083632	1.137007
-0.976692	6.246478	1.109572
-2.655806	13.669622	2.306804
-1.645428	7.085510	1.134535
-1.625286	13.679296	2.034927
-0.977344	6.264257	0.874002
-2.633917	13.594977	1.774432
-2.810304	12.130496	1.476409
-1.617601	13.614620	1.516547
-0.872465	5.680387	1.688818
-1.218066	6.326534	1.824201
-1.454931	6.280007	1.758925
-0.732931	6.353994	1.687541
-0.875103	5.697560	1.458396
-1.144544	5.968793	1.475140
-1.443252	6.261398	1.494097
-0.677094	5.854662	1.321391
-0.922199	6.013282	1.300321
-1.183389	6.183620	1.281818
-1.546914	6.732060	1.338554
-0.702020	6.070193	1.134087
-0.965579	6.302018	1.118906
-2.612189	13.668985	2.305333
-1.624123	7.092450	1.134843
-1.582060	13.673408	2.033320
-0.960367	6.281915	0.876050
-2.609835	13.695558	1.786507
-2.758257	12.074198	1.468520
-1.571141	13.579038	1.512039
-0.846327	5.625163	1.671620
-1.229082	6.490955	1.870514
-1.440599	6.306072	1.764979
-0.694991	6.191902	1.643918
-0.855744	5.687755	1.455208
-1.096873	5.816619	1.436693
-1.424036	6.265796	1.494097
-0.659456	5.859621	1.322048
-0.924375	6.153405	1.330002
-1.093188	5.808766	1.203413
-1.519312	6.706134	1.332466
-0.683943	6.077203	1.134999
-0.945363	6.299107	1.117869
-2.570240	13.676934	2.305333
-2.735582	12.116854	1.937431
-1.539328	13.671316	2.032297
-0.942703	6.295609	0.877553
-2.556844	13.645004	1.778881
-2.725783	12.102948	1.470993
-1.532365	13.609474	1.514898
-0.828086	5.621089	1.669646
-1.085534	5.830658	1.679267
-1.417430	6.293522	1.760241
-0.661200	6.058476	1.607947
-0.834051	5.661581	1.447850
-1.111973	5.997680	1.480565
-1.310896	5.850986	1.394219
-0.635213	5.804387	1.309140
-0.913319	6.209425	1.341498
-1.211743	6.549203	1.356034
-1.494879	6.693518	1.329042
-0.655455	5.989354	1.118212
-0.926033	6.301977	1.117869
-2.526655	13.676024	2.303862
-3.017128	13.557412	2.166280
-1.496839	13.671057	2.031566
-0.923672	6.300431	0.877826
-2.513173	13.643030	1.777610
-2.695741	12.143245	1.474879
-1.489090	13.600279	1.513358
-0.832470	5.773642	1.714193
-1.060020	5.792317	1.667280
-1.383898	6.233798	1.742341
-0.683085	6.442200	1.709225
-0.814188	5.646841	1.443435
-1.277019	7.007774	1.728938
-1.288319	5.834056	1.389236
-0.617196	5.804368	1.308703
-0.950417	6.602275	1.425734
-1.132737	6.228957	1.289000
-1.468216	6.670268	1.323525
-0.631359	5.937564	1.108175
-0.906695	6.304789	1.117869
-2.483628	13.677888	2.302882
-2.684043	12.237643	1.954075
-1.453739	13.664765	2.029959
-0.906870	6.320886	0.880284
-2.465474	13.618467	1.773416
-2.663991	12.176680	1.477940
-1.446096	13.592923	1.512039
-0.829360	5.879721	1.744924
-1.041563	5.791754	1.666190
-1.368477	6.254978	1.747079
-0.655893	6.372128	1.690092
-0.795505	5.639714	1.440982
-1.270586	7.095837	1.749695
-1.261923	5.798960	1.379951
-0.611509	5.923679	1.335174
-0.866065	6.150032	1.327494
-1.093973	6.122436	1.266257
-1.408415	6.493409	1.287569
-0.606981	5.879814	1.097044
-0.925492	6.578686	1.165924
-1.199080	6.720833	1.130931
-2.933259	13.572772	2.165818
-1.411199	13.663256	2.029082
-0.878387	6.258891	0.871271
-2.426287	13.640616	1.775322
-2.908912	13.494331	1.636779
-1.407859	13.630910	1.515777
-1.907051	13.619660	1.384079
-0.810793	5.878436	1.743796
-1.028811	5.823347	1.674363
-1.278534	5.930959	1.655474
-0.632978	6.340436	1.681163
-0.770914	5.589307	1.427492
-1.152852	6.554160	1.615248
-1.217377	5.678043	1.350282
-0.685789	6.848873	1.543228
-1.051638	5.991609	1.238525
-1.389512	6.502499	1.288520
-0.586882	5.861104	1.093212
-2.396590	13.675377	2.299940
-2.795725	13.131368	2.094004
-1.369965	13.674412	2.030105
-1.876193	13.673356	1.902593
-2.381695	13.632361	1.773289
-2.765183	13.021387	1.578377
-1.363061	13.605496	1.512479
-1.866068	13.631362	1.384680
-0.774425	5.744927	1.703479
-1.015875	5.854916	1.682536
-1.235482	5.817836	1.622833
-0.616037	6.368333	1.688051
-0.759979	5.637763	1.439265
-1.142663	6.615122	1.629400
-1.187674	5.623619	1.336466
-0.665716	6.860656	1.545415
-0.814618	6.053467	1.305547
-1.035081	6.005429	1.240720
-1.367939	6.499046	1.286998
-0.573076	5.905936	1.101241
-2.354121	13.679750	2.299450
-2.743461	13.082828	2.084911
-1.327528	13.673627	2.029374
-1.833181	13.671193	1.901501
-2.330469	13.584858	1.766171
-2.724408	13.025921	1.577906
-1.321601	13.612582	1.512809
-1.822260	13.622230	1.383178
-0.750784	5.701618	1.689946
-1.064155	6.246895	1.794233
-1.210319	5.786660	1.613093
-0.591178	6.313394	1.673000
-0.817226	6.206189	1.583731
-1.118951	6.598476	1.624447
-1.184696	5.695896	1.352773
-0.798974	6.078238	1.310354
-1.003738	5.932250	1.224959
-1.351580	6.520516	1.290422
-0.553759	5.894941	1.098869
-2.310005	13.674261	2.297325
-2.704509	13.096990	2.085836
-1.285109	13.672711	2.028644
-1.791101	13.675770	1.901364
-2.296686	13.638893	1.772272
-1.281041	13.629437	1.514238
-1.779299	13.618877	1.382277
-0.732799	5.700088	1.688818
-1.019439	6.097341	1.750372
-1.189641	5.776173	1.609145
-0.570759	6.303622	1.669939
-0.807453	6.280783	1.602127
-1.103488	6.630636	1.631523
-1.301271	6.354093	1.508139
-0.758415	5.909948	1.273566
-0.973976	5.865701	1.210595
-1.289559	6.318783	1.249710
-2.265461	13.665712	2.294710
-2.776124	13.655189	2.173369
-1.242708	13.671663	2.027913
-1.747880	13.671374	1.899999
-2.249010	13.610646	1.767696
-2.756515	13.595192	1.644785
-1.238771	13.628353	1.513688
-1.735242	13.606507	1.380474
-0.715069	5.700405	1.688254
-0.959141	5.846928	1.677632
-1.170764	5.774123	1.607566
-0.548216	6.268741	1.660245
-0.794092	6.330365	1.614145
-1.085176	6.646459	1.634589
-1.268681	6.293128	1.492738
-0.737243	5.887989	1.268341
-0.956449	5.871563	1.211193
-1.204232	5.994495	1.184837
-2.222574	13.666755	2.293730
-2.737320	13.679144	2.175835
-1.201190	13.680339	2.028644
-1.703354	13.656030	1.897131
-2.209147	13.629231	1.769221
-2.708768	13.573397	1.641135
-1.194867	13.608327	1.511050
-1.695210	13.625589	1.381876
-0.920106	5.718749	1.640037
-1.152855	5.776741	1.607302
-0.527031	6.247269	1.654122
-0.811040	6.630116	1.689935
-1.019607	6.367645	1.565243
-1.252780	6.314188	1.496815
-0.718820	5.887311	1.267714
-0.939203	5.879308	1.212191
-1.184884	5.993346	1.183886
-2.181256	13.677406	2.294384
-2.695531	13.688447	2.175989
-1.159298	13.684946	2.028790
-1.661330	13.660208	1.896994
-2.164209	13.616352	1.766679
-2.675915	13.626467	1.646551
-1.152776	13.607967	1.510610
-1.650763	13.608995	1.379673
-0.470857	5.817428	1.783937
-0.906605	5.747206	1.647393
-1.135871	5.784038	1.608355
-0.501126	6.165976	1.632183
-0.789433	6.621984	1.687237
-0.955308	6.085615	1.495189
-1.151288	5.897375	1.397163
-0.699368	5.877835	1.265206
-0.976498	6.235518	1.285010
-1.163491	5.981534	1.180842
-0.980118	6.269371	1.051177
-2.651080	13.684042	2.173985
-1.116824	13.682522	2.027913
-1.619180	13.663273	1.896721
-2.628634	13.606337	1.643137
-1.111427	13.616392	1.511159
-1.612274	13.641663	1.382477
-0.902053	5.834588	1.671639
-1.121231	5.803598	1.612830
-0.766207	6.599337	1.680860
-0.884623	5.750427	1.412163
-1.128597	5.876966	1.391501
-0.676266	5.836240	1.255800
-0.958552	6.246233	1.286606
-1.177790	6.155747	1.214515
-0.964166	6.293803	1.054773
-2.607605	13.684347	2.172752
-1.074067	13.676021	2.026452
-1.576232	13.659319	1.895492
-2.586693	13.613362	1.643019
-1.067468	13.591993	1.508081
-1.567115	13.617880	1.379573
-1.143941	6.020259	1.672058
-0.484427	6.450480	1.706674
-0.735616	6.510141	1.657559
-0.861618	5.717559	1.403435
-1.111646	5.886143	1.392860
-0.656385	5.820796	1.252037
-0.944191	6.281122	1.293190
-1.192664	6.338786	1.249900
-0.944266	6.292829	1.054119
-2.565610	13.692283	2.172752
-1.030542	13.658537	2.023383
-1.532550	13.648340	1.893307
-2.549475	13.645638	1.645963
-1.025539	13.592231	1.507751
-1.524222	13.612736	1.378572
-0.671142	6.107438	1.805541
-1.121745	6.003826	1.666530
-0.478178	6.639997	1.756420
-0.721040	6.561513	1.670068
-0.843080	5.713446	1.401784
-1.256820	6.768646	1.600770
-0.635007	5.790703	1.245139
-0.916070	6.223883	1.280820
-1.132318	6.121347	1.206335
-0.653022	5.962674	1.052702
-0.925243	6.297648	1.054446
-2.521443	13.688429	2.170903
-0.985920	13.624140	2.017830
-1.490563	13.651992	1.893170
-2.508137	13.656326	1.646316
-0.983690	13.593331	1.507531
-1.482774	13.620316	1.378872
-0.639871	5.992126	1.770863
-0.456674	6.625034	1.752083
-0.697818	6.534775	1.662709
-0.826242	5.720815	1.402964
-1.221708	6.693898	1.582198
-0.614544	5.767341	1.239705
-0.894177	6.207266	1.276830
-1.167620	6.422291	1.264930
-0.627013	5.892172	1.039911
-0.904233	6.288739	1.052485
-2.478379	13.690266	2.169978
-0.941245	13.585651	2.011692
-1.449090	13.660442	1.893717
-2.462171	13.641479	1.643608
-0.940814	13.579429	1.505662
-1.439725	13.612927	1.377671
-0.618912	5.969248	1.763532
-1.085742	6.015343	1.667846
-0.434568	6.599389	1.744940
-0.662869	6.393207	1.626164
-0.802569	5.680023	1.392349
-1.196695	6.672688	1.576310
-0.588897	5.692355	1.223192
-0.870343	6.176019	1.269848
-1.153609	6.457735	1.271208
-0.608427	5.889170	1.039046
-2.434636	13.688078	2.168437
-0.899495	13.587487	2.011546
-1.406970	13.662852	1.893443
-1.913623	13.656828	1.767061
-2.418574	13.639191	1.642430
-0.655568	9.902794	1.097776
-1.396430	13.602434	1.376169
-0.599635	5.961573	1.760713
-0.754852	5.433174	1.553131
-1.199850	6.766226	1.875011
-0.413834	6.592971	1.742900
-0.642282	6.385565	1.623711
-0.787267	5.697860	1.396123
-1.189400	6.751149	1.593975
-0.702082	6.996040	1.502863
-1.090863	6.216602	1.223076
-2.391780	13.690616	2.167667
-0.858989	13.608942	2.014322
-1.364948	13.666119	1.893307
-1.869023	13.642980	1.764519
-2.372118	13.620131	1.639251
-0.624244	9.889880	1.096127
-1.356762	13.627445	1.378271
-0.581529	5.965294	1.761277
-0.821695	6.050422	1.728850
-1.102445	6.329829	1.753134
-0.394009	6.600966	1.744685
-0.620055	6.360488	1.616843
-0.780187	5.777292	1.414993
-1.146597	6.627119	1.563853
-0.674462	6.934896	1.489276
-1.068284	6.199603	1.219081
-2.346927	13.681334	2.165047
-0.813854	13.555226	2.005993
-1.322633	13.666298	1.892761
-1.826500	13.643735	1.763883
-2.333836	13.647901	1.641724
-0.593721	9.888772	1.095797
-1.313418	13.615697	1.376669
-0.566380	6.000482	1.771144
-0.809330	6.099652	1.742199
-0.960245	5.615231	1.554392
-0.373154	6.591525	1.741879
-0.595072	6.304451	1.602127
-0.760298	5.763280	1.410983
-0.972286	5.724119	1.350055
-0.661526	7.025531	1.508297
-0.769372	5.848591	1.201019
-1.011926	5.982151	1.175705
-0.553462	5.886675	1.037663
-2.303794	13.681650	2.163968
-0.772938	13.569511	2.007746
-1.280145	13.664374	1.891941
-1.783733	13.642389	1.762993
-2.286694	13.623658	1.637956
-0.564962	9.918332	1.098875
-1.271917	13.622635	1.376970
-0.545613	5.976394	1.763532
-0.755131	5.828251	1.664011
-0.927363	5.524911	1.528596
-0.572466	6.270526	1.593052
-0.751799	5.836908	1.428438
-0.952638	5.714585	1.347111
-0.753672	5.868419	1.204610
-0.986333	5.941645	1.167144
-0.535488	5.889326	1.037836
-2.261325	13.685729	2.163506
-0.729973	13.547123	2.004093
-1.238396	13.670210	1.892214
-1.741116	13.641894	1.762231
-2.243757	13.623751	1.637132
-0.534423	9.918034	1.098655
-1.228418	13.607645	1.375067
-0.728436	5.760856	1.644123
-0.908370	5.515355	1.525174
-0.318377	6.309779	1.666877
-0.549989	6.235556	1.583731
-0.799207	6.358891	1.555573
-0.934630	5.714597	1.346431
-0.736029	5.873620	1.205208
-0.967784	5.942705	1.166764
-2.219801	13.695528	2.163968
-0.688358	13.548311	2.003947
-1.196105	13.669997	1.891668
-1.697907	13.636345	1.760833
-2.204641	13.647236	1.639133
-0.501017	9.861060	1.092169
-1.186751	13.612340	1.375167
-1.689997	13.613504	1.251816
-0.508363	5.972938	1.761559
-0.716765	5.811766	1.658017
-1.009145	6.246691	1.726547
-0.303594	6.407309	1.692388
-0.531103	6.240112	1.584467
-0.821309	6.700840	1.638599
-0.925886	5.772255	1.359341
-0.718006	5.875851	1.205208
-0.948309	5.937890	1.165242
-2.177774	13.702274	2.163968
-0.647591	13.567158	2.006431
-1.154327	13.675576	1.891941
-1.656064	13.641489	1.760833
-2.159033	13.630396	1.636308
-0.473747	9.925097	1.099095
-1.146151	13.629798	1.376569
-1.647505	13.612693	1.251270
-0.490271	5.977338	1.762404
-0.703065	5.848328	1.667825
-1.000692	6.317410	1.745237
-0.508152	6.195334	1.572694
-0.798788	6.686924	1.634589
-0.912712	5.803935	1.366135
-0.699744	5.876080	1.204809
-0.986880	6.303523	1.236393
-0.978278	6.279418	0.991215
-0.605699	13.563150	2.005554
-1.111804	13.672143	1.890985
-1.612573	13.632716	1.759053
-0.441654	9.889765	1.095027
-1.103044	13.617383	1.374967
-1.600836	13.576145	1.247454
-0.470119	5.955859	1.755638
-0.984118	6.338563	1.750238
-0.265429	6.437068	1.699786
-0.778044	6.687413	1.634118
-0.890748	5.779753	1.359794
-0.679343	5.857758	1.200620
-0.967685	6.307491	1.236583
-0.961544	6.298994	0.993835
-0.564784	13.581748	2.008039
-1.069621	13.672526	1.890576
-1.569833	13.629716	1.758037
-0.413252	9.937748	1.100194
-1.061184	13.619711	1.374867
-1.564971	13.631450	1.252088
-0.709124	6.220586	1.772711
-0.966844	6.355859	1.754186
-0.243282	6.375048	1.683204
-0.752932	6.649213	1.624211
-0.867777	5.747787	1.351641
-0.659720	5.845209	1.197627
-0.947892	6.307518	1.236013
-0.941922	6.299960	0.993527
-0.524065	13.608130	2.011692
-1.025220	13.643145	1.886069
-1.529336	13.646296	1.759562
-0.380505	9.880371	1.093708
-1.016351	13.582222	1.370761
-1.521595	13.622331	1.250816
-0.688022	6.204562	1.767535
-0.810015	5.437037	1.499903
-0.651255	5.913510	1.444005
-0.846862	5.728261	1.346431
-0.641356	5.843310	1.196829
-0.931109	6.327880	1.239437
-0.922017	6.298910	0.992910
-0.479335	13.525639	1.999271
-0.981721	13.623500	1.882928
-1.485099	13.629231	1.756766
-0.351493	9.918245	1.097776
-0.971970	13.547565	1.366956
-1.480117	13.629906	1.251089
-0.667024	6.188467	1.762359
-0.993821	6.814167	1.878959
-0.670959	6.269134	1.530334
-0.837236	5.785778	1.359341
-0.622179	5.833557	1.194435
-0.866631	6.017815	1.178179
-0.900026	6.283125	0.989982
-0.438541	13.548798	2.002485
-0.936170	13.572093	1.875417
-1.446097	13.660356	1.760197
-0.320773	9.910335	1.096786
-0.931698	13.569343	1.368859
-1.436832	13.620517	1.249816
-0.802536	5.623365	1.549918
-0.651020	6.264396	1.528683
-0.819208	5.786391	1.358888
-0.601251	5.806198	1.188450
-0.974300	6.915783	1.353393
-1.915182	13.668608	2.152719
-0.395929	13.514482	1.997225
-0.894723	13.577866	1.875827
-1.403167	13.654861	1.758926
-1.895558	13.580295	1.625828
-0.290221	9.906305	1.096237
-0.647461	9.872812	0.995752
-1.394226	13.616936	1.249089
-0.637013	6.270938	1.784698
-0.767675	5.499679	1.515171
-0.645738	6.404628	1.562413
-0.807863	5.835188	1.369759
-0.578538	5.759266	1.178475
-1.873238	13.674419	2.152719
-0.354491	13.516622	1.997371
-0.851510	13.555830	1.872413
-1.357727	13.623570	1.754351
-1.856302	13.603757	1.627948
-0.260662	9.938944	1.099755
-0.617044	9.872765	0.995552
-1.351657	13.613221	1.248362
-0.612490	6.219241	1.769442
-0.822018	6.023915	1.658896
-0.780945	5.771039	1.354132
-0.342347	5.686036	1.217549
-0.776103	5.764783	1.127193
-1.829835	13.669329	2.151023
-0.313525	13.539404	2.000586
-0.810803	13.573211	1.874461
-1.314303	13.610887	1.752190
-1.816789	13.626121	1.629949
-0.230053	9.934729	1.099205
-0.590470	9.937185	1.001860
-1.310267	13.621269	1.248726
-0.590118	6.186609	1.759634
-0.817941	6.134467	1.688641
-0.539321	5.699320	1.389519
-0.774342	5.857416	1.373836
-0.537579	5.703197	1.166305
-0.761869	5.793418	1.132330
-1.787505	13.671940	2.150561
-0.272084	13.545248	2.001317
-0.768709	13.567723	1.873369
-1.272724	13.616830	1.752444
-1.775104	13.632616	1.630067
-0.199553	9.934394	1.099095
-0.557574	9.896234	0.997555
-1.268564	13.626216	1.248817
-0.570781	6.184558	1.758545
-0.758737	5.878119	1.378139
-0.742342	5.782095	1.129666
-1.745927	13.680300	2.151023
-0.230662	13.553932	2.002485
-0.726073	13.551222	1.870774
-1.233085	13.644379	1.755495
-1.732646	13.633072	1.629478
-0.169260	9.945891	1.100304
-0.526734	9.888956	0.996653
-1.227913	13.642938	1.249998
-0.551548	6.183405	1.757727
-0.746349	5.872358	1.615199
-0.502029	5.676386	1.383150
-0.747760	5.936469	1.391275
-0.715691	5.713235	1.115779
-1.703216	13.679709	2.150099
-0.189091	13.555564	2.002632
-0.684345	13.550418	1.870364
-1.188200	13.613513	1.751046
-1.689346	13.626498	1.628065
-0.138260	9.911578	1.096456
-0.495095	9.864688	0.994050
-1.184931	13.633743	1.248817
-0.533070	6.190820	1.759362
-0.725124	5.848770	1.608092
-0.483951	5.670153	1.381263
-0.719092	5.853661	1.371344
-0.698993	5.722225	1.117110
-1.660168	13.676043	2.148712
-0.147729	13.576854	2.005701
-0.643568	13.569276	1.872686
-1.147178	13.625990	1.752190
-1.647413	13.630631	1.627948
-0.108046	9.929846	1.098435
-0.464173	9.852247	0.992648
-1.142848	13.634337	1.248544
-0.518135	6.241328	1.773256
-0.706946	5.849052	1.607566
-0.046185	6.188067	1.632693
-0.699162	5.839398	1.367494
-0.684799	5.752613	1.122627
-1.618782	13.685977	2.149482
-0.105920	13.557459	2.002778
-0.602022	13.573165	1.872959
-1.104166	13.614616	1.750283
-1.606632	13.644496	1.629007
-0.077496	9.919198	1.097226
-0.435608	9.891396	0.996453
-1.100692	13.633809	1.248181
-0.497144	6.219870	1.766718
-0.687982	5.842570	1.605196
-0.027502	6.256830	1.650806
-0.683726	5.862800	1.372477
-0.677209	5.841480	1.139559
-1.576222	13.685971	2.148712
-0.064387	13.570580	2.004678
-0.558294	13.524469	1.865994
-1.064320	13.642662	1.753461
-1.564312	13.645415	1.628536
-0.047035	9.913425	1.096566
-0.405341	9.894675	0.996653
-1.058782	13.636129	1.248090
-0.479018	6.233837	1.770259
-0.666648	5.814942	1.597036
-0.008326	6.271389	1.654632
-0.659144	5.806802	1.358888
-0.660165	5.851335	1.141081
-1.533676	13.685833	2.147941
-0.022773	13.582585	2.006431
-0.517631	13.547896	1.868999
-1.020681	13.622124	1.750411
-1.521450	13.641268	1.627477
-0.016581	9.889669	1.093928
-0.375548	9.910786	0.998155
-1.012796	13.583699	1.243001
-0.462226	6.266943	1.779249
-0.648163	5.811207	1.595457
0.010895	6.259782	1.651571
-0.641433	5.809765	1.359114
-0.641675	5.848453	1.140130
-1.490932	13.683598	2.146863
0.018807	13.517300	1.996786
-0.474290	13.498929	1.862034
-0.975757	13.581661	1.744818
-1.481626	13.664630	1.629714
0.013786	9.908558	1.096017
-0.345348	9.917857	0.998756
-0.968561	13.550982	1.239729
-0.440013	6.226102	1.767262
-0.688674	6.351229	1.743131
0.029695	6.175599	1.629376
-0.623814	5.813643	1.359567
-0.622168	5.835751	1.137276
-1.448320	13.682213	2.145938
0.060415	13.547846	2.001317
-0.434017	13.535966	1.866950
-0.938643	13.650890	1.753334
-1.437304	13.646397	1.627006
0.044216	9.915427	1.096786
-0.314414	9.902959	0.997154
-0.420844	6.226462	1.766990
-0.672925	6.388811	1.752870
0.048451	6.151307	1.622999
-0.607691	5.831998	1.363417
-0.604160	5.836656	1.137086
-1.405529	13.678729	2.144705
0.101859	13.531768	1.998978
-0.392200	13.527331	1.865585
-0.647525	9.858975	1.266035
-1.395027	13.646790	1.626535
0.074838	9.942080	1.099755
-0.285285	9.947638	1.001560
-0.646061	6.319825	1.733391
0.066381	6.065079	1.600294
-0.589306	5.828990	1.362285
-0.361018	5.695489	1.161916
-0.586055	5.836529	1.136705
-1.363361	13.681010	2.144397
0.143185	13.513586	1.996348
-0.350620	13.525500	1.865175
-0.625579	9.993568	1.283067
-1.352369	13.643100	1.625593
0.105550	9.961681	1.101954
-0.255147	9.963386	1.003062
-0.622196	6.276656	1.721019
0.084812	6.052278	1.596978
-0.551755	5.630110	1.315403
-0.568621	5.843185	1.137657
-1.320622	13.677260	2.143164
0.185076	13.544737	2.001024
-0.309665	13.550281	1.868453
-0.597745	10.042968	1.289168
-1.310221	13.644219	1.625239
0.136261	9.972242	1.103163
-0.224175	9.946216	1.001260
-0.606257	6.313107	1.730496
0.102587	6.005584	1.584732
-0.529694	5.581355	1.303626
-0.547837	5.814602	1.131759
-1.277919	13.673378	2.141931
0.226431	13.532236	1.999271
-0.267975	13.545225	1.867633
-0.558267	9.891255	1.269467
-1.268263	13.647186	1.625122
0.166739	9.964821	1.102393
-0.194299	9.979686	1.004564
-0.580904	6.250577	1.712859
0.120855	5.997508	1.582692
-0.527857	5.792791	1.127193
-1.235341	13.670345	2.140852
0.267418	13.504773	1.995325
-0.226500	13.550936	1.868316
-0.536587	10.055361	1.290311
-1.226033	13.647057	1.624651
0.197664	9.982150	1.104372
-0.163583	9.974265	1.003963
-0.565955	6.299412	1.725757
-1.191849	13.656354	2.138078
0.309482	13.531581	1.999417
-0.185385	13.585245	1.872959
-0.497067	9.884588	1.268196
-1.182528	13.631956	1.622414
0.228288	9.981497	1.104372
-0.132544	9.941889	1.000659
-0.543874	6.269402	1.717071
-1.149283	13.652069	2.136845
0.350430	13.508811	1.996202
-0.143600	13.575844	1.871593
-0.638597	13.526216	1.735159
-1.141942	13.650364	1.624180
0.258987	9.983730	1.104702
-0.102154	9.953193	1.001760
-0.522466	6.245084	1.709963
-1.106915	13.649622	2.135921
0.392820	13.540305	2.001024
-0.101845	13.562353	1.869682
-1.097346	13.620149	1.620176
0.290163	10.001765	1.106791
-0.071238	9.900727	0.996453
1.070501	36.352421	2.682838
-0.264649	6.158973	1.745468
-0.505086	6.268774	1.716018
-1.063419	13.632267	2.132685
0.433566	13.514317	1.997371
-0.060056	13.521986	1.864082
-0.557462	13.575469	1.741005
-1.054251	13.606620	1.618175
0.320878	10.001821	1.106901
-0.040801	9.885975	0.994951
-0.486597	6.279913	1.718650
-0.427456	5.648471	1.097706
-1.020853	13.625613	2.131144
0.475269	13.519843	1.998394
-0.018621	13.558759	1.869135
-0.511932	13.475024	1.727914
-1.009702	13.572159	1.613701
0.351597	10.001783	1.107011
-0.010459	9.874114	0.993749
-0.226641	6.154712	1.743833
-0.468115	6.291959	1.721546
-0.978408	13.619811	2.129757
0.022936	13.534977	1.865858
-0.343241	9.829590	1.260316
-0.967635	13.569249	1.612994
0.382508	10.006617	1.107670
0.019805	9.859175	0.992247
0.518368	13.407525	0.989796
-0.208829	6.187112	1.752824
-0.465828	6.532013	1.786827
0.025234	6.208331	1.570732
-0.934857	13.597120	2.125750
0.064423	13.526918	1.864765
-0.313524	9.844477	1.262095
-0.927082	13.588006	1.614878
0.412345	9.984541	1.105362
0.050067	9.862053	0.992548
-0.189993	6.192532	1.754186
-0.446246	6.540149	1.788670
0.044861	6.289657	1.591335
-0.893266	13.601896	2.126058
0.105946	13.529629	1.865175
-0.389630	13.539645	1.735667
-0.885196	13.587813	1.614525
0.442490	9.972307	1.104152
0.080218	9.848918	0.991246
-0.169374	6.134416	1.737567
-0.420597	6.455808	1.765242
0.063920	6.266224	1.585448
-0.850051	13.580905	2.122360
0.147422	13.526268	1.864765
-0.252426	9.819442	1.258664
-0.611345	9.849916	1.170154
0.474119	9.992744	1.106571
0.110434	9.848626	0.991246
-0.390449	6.290490	1.719703
0.082462	6.214622	1.572449
-0.807148	13.562736	2.119123
0.188739	13.512876	1.862990
-0.222232	9.817196	1.258282
-0.584339	9.906268	1.176630
0.503972	9.975360	1.104812
0.140663	9.849236	0.991346
-0.131648	6.131491	1.736478
-0.367910	6.236764	1.704699
0.098472	6.027260	1.525111
-0.765089	13.557257	2.117890
0.230870	13.551853	1.868453
-0.194033	9.916010	1.270865
-0.554886	9.924869	1.178631
0.533882	9.960864	1.103383
0.170931	9.851742	0.991647
-0.113651	6.176119	1.749009
-0.349044	6.242679	1.706015
0.117264	6.042438	1.529035
-0.723809	13.565460	2.118815
0.271988	13.528301	1.865312
-0.223710	13.559275	1.737701
-0.524854	9.934458	1.179573
0.565226	9.973072	1.104922
0.201256	9.856146	0.992147
-0.094555	6.166818	1.746285
-0.331468	6.273585	1.714175
0.135910	6.046896	1.530262
-0.682286	13.569591	2.119123
0.313996	13.549190	1.868316
-0.132227	9.845604	1.261714
-0.493830	9.925111	1.178278
0.594694	9.952440	1.102833
0.231540	9.857471	0.992347
-0.075599	6.164193	1.745468
-0.317253	6.375745	1.741815
0.154238	6.037728	1.528054
-0.640093	13.559777	2.117274
0.354549	13.509542	1.862990
-0.102061	9.849931	1.262222
-0.466990	10.003954	1.187462
0.625661	9.957513	1.103603
0.261438	9.843785	0.991046
-0.056006	6.090311	1.724491
-0.295937	6.339104	1.731548
0.172511	6.028505	1.525847
-0.598750	13.567600	2.118199
0.395849	13.503440	1.862307
-0.072030	9.875986	1.265527
-0.432921	9.927955	1.178278
0.657711	9.978357	1.106131
0.293729	9.913548	0.998155
-0.036867	6.016369	1.703513
0.187352	5.912640	1.496659
-0.556515	13.554564	2.115887
0.439712	13.577410	1.872686
-0.041839	9.901949	1.268832
-0.400571	9.882602	1.172744
0.689416	9.992158	1.107890
0.323850	9.903650	0.997254
-0.038136	9.882863	0.901853
-0.018306	5.982777	1.693978
0.480487	13.551248	1.869272
-0.015615	13.491679	1.728804
-0.371216	9.909585	1.175805
0.721640	10.011805	1.110309
0.353770	9.889684	0.995952
-0.007796	9.858037	0.899581
0.000049	5.971260	1.690709
0.523394	13.584356	1.874052
0.018879	9.881190	1.266163
-0.339071	9.860062	1.169800
0.751011	9.991704	1.108330
0.524143	13.493608	1.359045
0.022416	9.844072	0.898308
0.018354	5.966420	1.689347
0.563503	13.545074	1.868862
0.049016	9.845378	1.261587
-0.308104	9.838228	1.167092
0.780189	9.970525	1.106241
0.411945	9.827681	0.989944
0.052591	9.838978	0.897854
0.036688	5.971147	1.690709
0.604614	13.533386	1.867497
0.079676	9.901717	1.268832
-0.279995	9.912582	1.175805
0.809324	9.950253	1.104262
0.446476	9.923780	0.999758
0.082851	9.847733	0.898672
0.646273	13.534436	1.867906
0.109965	9.893492	1.267815
0.841937	9.972484	1.107011
0.476012	9.903480	0.997855
0.113063	9.847433	0.898672
0.080597	6.184882	1.501322
0.687843	13.533379	1.868043
0.140149	9.881206	1.266290
-0.219035	9.908156	1.175099
0.872182	9.965893	1.106571
0.507918	9.931784	1.000859
0.143941	9.892844	0.902852
0.729253	13.529226	1.867770
0.233923	13.559102	1.737701
-0.187786	9.864103	1.169800
0.902843	9.964160	1.106681
0.537955	9.922230	1.000058
0.173782	9.863480	0.900217
0.770644	13.524947	1.867497
0.200293	9.856360	1.263239
-0.158505	9.926194	1.177101
0.930997	9.935614	1.103823
0.568735	9.926493	1.000659
0.205010	9.909697	0.904488
0.812194	13.523507	1.867633
0.230623	9.859666	1.263748
-0.127257	9.865069	1.169800
0.961953	9.937658	1.104372
0.596188	9.875043	0.995652
0.320182	13.477184	1.230187
-0.079701	6.176666	1.685483
0.853118	13.512054	1.866404
0.358944	13.565299	1.738845
-0.097343	9.901161	1.174039
0.994117	9.951473	1.106241
0.630199	9.931753	1.001560
0.266425	9.931148	0.906578
-0.060751	6.176881	1.685483
0.894830	13.513327	1.866950
0.290883	9.850133	1.262731
-0.066892	9.890490	1.172744
1.025967	9.961229	1.107670
0.659081	9.905947	0.999157
0.294422	9.847664	0.899035
-0.040939	6.049697	1.650736
0.187493	5.961864	1.447779
0.935462	13.498659	1.865312
0.322168	9.881909	1.266925
-0.036676	9.925405	1.176865
1.057466	9.966930	1.108660
0.688778	9.893952	0.998155
