x	y	z
3.133040	-2.426813	0.002698
3.386590	-2.431084	-0.037400
3.665292	-2.434745	-0.080341
3.905816	-2.396105	-0.127833
3.171009	-2.466403	0.900690
3.413319	-2.457571	0.899000
3.148605	-2.448977	0.740304
3.403163	-2.450981	0.736027
3.710230	-2.470085	0.738373
4.055701	-2.492615	0.742487
3.143133	-2.444457	0.588193
3.403503	-2.452940	0.578344
3.690201	-2.459540	0.568261
4.031736	-2.480795	0.561292
3.080306	-2.395596	0.431634
3.342596	-2.410640	0.414763
3.646909	-2.432617	0.400036
3.952756	-2.434862	0.379644
3.106960	-2.418501	0.290450
3.374908	-2.434660	0.267066
3.649934	-2.436476	0.239974
3.979334	-2.454108	0.211320
3.082532	-2.401041	0.145255
3.350925	-2.420027	0.114013
3.628828	-2.424585	0.078846
3.956606	-2.440664	0.040326
3.116116	-2.429036	0.002689
3.360473	-2.427993	-0.037193
3.645338	-2.437641	-0.080067
3.886540	-2.400722	-0.127442
3.150365	-2.465896	0.896971
3.396260	-2.461146	0.896492
3.121720	-2.443475	0.735742
3.374893	-2.446381	0.731533
3.688702	-2.472119	0.735595
4.029551	-2.493607	0.739096
3.120038	-2.441894	0.585270
3.374310	-2.447665	0.574656
3.666988	-2.460350	0.565846
4.000469	-2.478509	0.557995
3.069812	-2.402584	0.431194
3.323107	-2.412117	0.413261
3.605532	-2.421033	0.396310
3.924940	-2.434369	0.377688
3.089319	-2.420026	0.289494
3.352080	-2.433862	0.265849
3.618408	-2.431512	0.238391
3.947174	-2.451022	0.210010
3.067286	-2.404322	0.144883
3.316801	-2.410900	0.113103
3.607269	-2.426221	0.078539
3.926165	-2.438546	0.040092
3.092913	-2.426241	0.002676
3.342495	-2.430646	-0.037077
3.617936	-2.435414	-0.079629
3.868122	-2.405771	-0.127080
3.130521	-2.465889	0.893471
3.387113	-2.470401	0.896074
3.617092	-2.438864	0.888195
3.104941	-2.445740	0.733553
3.342706	-2.438727	0.726174
3.668015	-2.474597	0.732980
3.999239	-2.491850	0.734936
3.096989	-2.439213	0.582347
3.355584	-2.449828	0.572744
3.637229	-2.456599	0.562414
3.975153	-2.479733	0.555523
3.024946	-2.382472	0.425917
3.302033	-2.412322	0.411559
3.573335	-2.415353	0.393584
3.903927	-2.437953	0.376384
3.067782	-2.418379	0.288169
3.326871	-2.431181	0.264440
3.594390	-2.431413	0.237299
3.913378	-2.446703	0.208610
3.047342	-2.403819	0.144289
3.286800	-2.404539	0.112331
3.580766	-2.424384	0.078123
3.899165	-2.438385	0.039893
3.074466	-2.427043	0.002666
3.311621	-2.423763	-0.036816
3.593066	-2.434724	-0.079246
3.115294	-2.469420	0.891283
3.359811	-2.466314	0.890849
3.081242	-2.442428	0.729721
3.332032	-2.446639	0.725483
3.635922	-2.469211	0.728077
3.976510	-2.494656	0.732162
3.084839	-2.445016	0.581470
3.326498	-2.444274	0.569057
3.609989	-2.454362	0.559364
3.949867	-2.480825	0.553050
3.020738	-2.394210	0.426357
3.284997	-2.415369	0.410357
3.551911	-2.416780	0.392039
3.873648	-2.435594	0.374183
3.040816	-2.412285	0.286330
3.294475	-2.423047	0.262455
3.576184	-2.435123	0.236589
3.883027	-2.444329	0.207391
3.027430	-2.403216	0.143694
3.275382	-2.411648	0.112193
3.541090	-2.413397	0.077419
3.875588	-2.440213	0.039728
3.048214	-2.421536	0.002650
3.287262	-2.421457	-0.036628
3.563278	-2.430524	-0.078753
3.092447	-2.466796	0.886907
3.341217	-2.468475	0.887922
3.623096	-2.475385	0.893382
3.077578	-2.454935	0.730633
3.320550	-2.453923	0.724618
3.606339	-2.465321	0.723665
3.943776	-2.491015	0.727538
3.065722	-2.445216	0.579278
3.308629	-2.446810	0.567282
3.591801	-2.458143	0.557711
3.908665	-2.471702	0.548340
2.983851	-2.379915	0.422179
3.263175	-2.414782	0.408555
3.540372	-2.424852	0.391584
3.856894	-2.441603	0.373287
3.026386	-2.416003	0.285668
3.276599	-2.425424	0.261622
3.553871	-2.435921	0.235606
3.870446	-2.453022	0.207120
3.002866	-2.398771	0.142877
3.249496	-2.407996	0.111559
3.521302	-2.415766	0.077148
3.844435	-2.437101	0.039485
3.032178	-2.424008	0.002642
3.266162	-2.421407	-0.036476
3.540144	-2.430692	-0.078406
3.066602	-2.461612	0.881657
3.324996	-2.472296	0.885623
3.604181	-2.478715	0.890589
3.046263	-2.445286	0.724976
3.279813	-2.439411	0.717358
3.590632	-2.470781	0.722031
3.907768	-2.485076	0.722299
3.047405	-2.445941	0.577233
3.270114	-2.433882	0.561956
3.573624	-2.461836	0.556059
3.886823	-2.474615	0.546339
2.995914	-2.404612	0.424928
3.242185	-2.414679	0.406852
3.520618	-2.427224	0.390221
3.819969	-2.434675	0.370434
3.001078	-2.410911	0.283976
3.249935	-2.421156	0.260085
3.520903	-2.429235	0.233913
3.843533	-2.452525	0.206082
2.986924	-2.401085	0.142468
3.230875	-2.409588	0.111173
3.499887	-2.416899	0.076841
3.817554	-2.436510	0.039285
3.014598	-2.425150	0.002634
3.246696	-2.422446	-0.036341
3.513752	-2.428467	-0.077986
3.047649	-2.461812	0.878375
3.297821	-2.467837	0.880397
3.582863	-2.480279	0.887198
2.987501	-2.413226	0.712750
3.254966	-2.436477	0.713556
3.544917	-2.455384	0.714349
3.853527	-2.467218	0.713669
2.996790	-2.420469	0.569049
3.250739	-2.434995	0.559908
3.540786	-2.455267	0.552119
3.859984	-2.474202	0.543630
2.951408	-2.383815	0.419650
3.223616	-2.416260	0.405451
3.496791	-2.426658	0.388404
3.799060	-2.437771	0.369130
2.983585	-2.411956	0.283020
3.234508	-2.425129	0.259445
3.509333	-2.437177	0.233640
3.814979	-2.450807	0.204953
2.970221	-2.402696	0.142023
3.208277	-2.408087	0.110649
3.482604	-2.420777	0.076624
3.778934	-2.428210	0.038964
2.997817	-2.426837	0.002625
3.227255	-2.423389	-0.036206
3.495615	-2.431812	-0.077749
3.031753	-2.464380	0.875969
3.280861	-2.470884	0.877889
3.549510	-2.473333	0.880813
3.801733	-2.446497	0.876072
3.002972	-2.440985	0.718225
3.260063	-2.455934	0.716321
3.508233	-2.445936	0.708466
3.841788	-2.476352	0.712898
2.978602	-2.420917	0.567003
3.225059	-2.431241	0.556767
3.514529	-2.453061	0.549196
3.826509	-2.469341	0.539980
2.950251	-2.397874	0.420530
3.193153	-2.408762	0.402547
3.457490	-2.415134	0.384860
3.783191	-2.444007	0.368315
2.969208	-2.415434	0.282357
3.219086	-2.429030	0.258804
3.479743	-2.432486	0.232166
3.779760	-2.444596	0.203463
2.955860	-2.406119	0.141688
3.184124	-2.405266	0.110070
3.457957	-2.419413	0.076245
3.767269	-2.437077	0.038921
2.981829	-2.429075	0.002618
3.204647	-2.421823	-0.036036
3.474215	-2.432776	-0.077438
3.015870	-2.466874	0.873562
3.246767	-2.460854	0.870782
3.527464	-2.474083	0.877222
3.799153	-2.461352	0.877213
2.985576	-2.442094	0.715852
3.228966	-2.448072	0.711136
3.475679	-2.439119	0.703400
3.808478	-2.471454	0.708121
2.964269	-2.424407	0.565688
3.204958	-2.431544	0.554582
3.494813	-2.455279	0.547289
3.806424	-2.472954	0.538214
2.934417	-2.399992	0.419321
3.169106	-2.405913	0.400444
3.432957	-2.413701	0.382951
3.746432	-2.436583	0.365462
2.961012	-2.423900	0.282284
3.206850	-2.435273	0.258420
3.460832	-2.435106	0.231402
3.752988	-2.443644	0.202424
2.936096	-2.405044	0.141094
3.174342	-2.413208	0.109988
3.446431	-2.427132	0.076154
3.747205	-2.440437	0.038791
2.958122	-2.424899	0.002604
3.181283	-2.419537	-0.035857
3.459380	-2.438239	-0.077274
2.993220	-2.463712	0.869187
3.221318	-2.457162	0.865975
3.497443	-2.469069	0.871636
3.777605	-2.463879	0.873979
2.963646	-2.439370	0.712385
3.214393	-2.452590	0.709580
3.451257	-2.437818	0.699968
3.793433	-2.478263	0.706734
2.939249	-2.419031	0.562327
3.184885	-2.431746	0.552397
3.478355	-2.459690	0.545891
3.761421	-2.460160	0.532916
2.920133	-2.403299	0.418331
3.141944	-2.400523	0.397940
3.419032	-2.419620	0.382224
3.715592	-2.432779	0.363180
2.943555	-2.424730	0.281328
3.177956	-2.428739	0.256691
3.441937	-2.437633	0.230637
3.714560	-2.434883	0.200754
2.926390	-2.412134	0.140982
3.158985	-2.416862	0.109712
3.420207	-2.424396	0.075739
3.715449	-2.436022	0.038539
2.939868	-2.425054	0.002594
3.160346	-2.418953	-0.035704
3.427419	-2.431486	-0.076726
2.962351	-2.453589	0.862405
3.194372	-2.452147	0.860749
3.478669	-2.471841	0.868843
3.747050	-2.460369	0.868652
2.944790	-2.439044	0.709648
3.184199	-2.445044	0.704567
3.442154	-2.447251	0.699641
3.760221	-2.473058	0.701957
2.921908	-2.419834	0.560427
3.170340	-2.436074	0.551168
3.450590	-2.455970	0.542714
3.753026	-2.471142	0.532798
2.898202	-2.400201	0.416242
3.130620	-2.407118	0.397440
3.386448	-2.412187	0.379407
3.691468	-2.433196	0.361550
2.918443	-2.419111	0.279635
3.157833	-2.428743	0.255666
3.400293	-2.423839	0.228344
3.681225	-2.429211	0.199354
2.902054	-2.407065	0.140165
3.128585	-2.408857	0.108912
3.386708	-2.416295	0.075161
3.687928	-2.434189	0.038331
2.917795	-2.421927	0.002581
3.139443	-2.418264	-0.035552
3.412620	-2.436760	-0.076562
2.942067	-2.452045	0.858686
3.175226	-2.452967	0.857614
3.459114	-2.473952	0.865851
3.728018	-2.464274	0.865989
2.929740	-2.441772	0.707824
3.157199	-2.439745	0.700246
3.421793	-2.448614	0.697026
3.723782	-2.465492	0.696563
2.899272	-2.416120	0.557504
3.155798	-2.440335	0.549938
3.444652	-2.467700	0.542968
3.705697	-2.456310	0.527146
2.880135	-2.400173	0.414703
3.109057	-2.405751	0.395637
3.362844	-2.410960	0.377589
3.677342	-2.440102	0.360898
2.902583	-2.421027	0.278826
3.139318	-2.429868	0.254770
3.379048	-2.424364	0.227416
3.659609	-2.431096	0.198586
2.887751	-2.410195	0.139831
3.095105	-2.398239	0.108002
3.364661	-2.416176	0.074836
3.664619	-2.434977	0.038166
2.896536	-2.419328	0.002569
3.120945	-2.419308	-0.035426
3.375899	-2.426212	-0.075905
2.927802	-2.455417	0.856717
3.161509	-2.457896	0.855942
3.411743	-2.455929	0.855875
3.693469	-2.457752	0.859711
2.914702	-2.444430	0.705999
3.141146	-2.442769	0.698344
3.405459	-2.452759	0.695228
3.708801	-2.471972	0.695176
2.884265	-2.418647	0.556043
3.135006	-2.439662	0.547617
3.396032	-2.448671	0.536486
3.689883	-2.462155	0.525969
2.854479	-2.393670	0.412064
3.093811	-2.409165	0.394636
3.339280	-2.409611	0.375772
3.643317	-2.433657	0.358290
2.879864	-2.417097	0.277355
3.116890	-2.427836	0.253553
3.352167	-2.420689	0.226105
3.641338	-2.435093	0.197999
2.868865	-2.409402	0.139274
3.076697	-2.399118	0.107616
3.343456	-2.416531	0.074529
3.618066	-2.420079	0.037759
2.879914	-2.420483	0.002561
3.099316	-2.417800	-0.035264
3.348997	-2.422494	-0.075467
2.904594	-2.451172	0.852122
3.142400	-2.458545	0.852807
3.404986	-2.466959	0.856075
3.651654	-2.446124	0.851721
2.879387	-2.429899	0.699247
3.095630	-2.422650	0.689874
3.372358	-2.444666	0.689998
3.683969	-2.471779	0.691940
2.870783	-2.422381	0.554874
3.113468	-2.438275	0.545159
3.377265	-2.450922	0.534706
3.661704	-2.459621	0.523025
2.840285	-2.396647	0.411075
3.073091	-2.408213	0.392934
3.318174	-2.409896	0.374227
3.589517	-2.413679	0.353726
2.850339	-2.407260	0.275221
3.092933	-2.424458	0.252208
3.331801	-2.421570	0.225232
3.627221	-2.441790	0.197638
2.850010	-2.408517	0.138716
3.058312	-2.399906	0.107230
3.323899	-2.417955	0.074258
3.589059	-2.416646	0.037533
2.858730	-2.417683	0.002548
3.081659	-2.419270	-0.035148
3.325383	-2.420988	-0.075102
2.884416	-2.449334	0.848403
3.121012	-2.457285	0.849044
3.379983	-2.464692	0.851686
3.653086	-2.463353	0.853813
2.859927	-2.428539	0.696328
3.108301	-2.447980	0.694368
3.334556	-2.432904	0.683788
3.642798	-2.460395	0.685621
2.849010	-2.419012	0.552097
3.081075	-2.428194	0.540789
3.342497	-2.441380	0.530385
3.636043	-2.458606	0.520435
2.829131	-2.402133	0.410525
3.061001	-2.413933	0.392333
3.301117	-2.413012	0.373137
3.563937	-2.412389	0.351933
2.833061	-2.407598	0.274265
3.075295	-2.425901	0.251375
3.300985	-2.414684	0.223648
3.607307	-2.444501	0.196961
2.830427	-2.406892	0.138122
3.044659	-2.404322	0.107010
3.300330	-2.416328	0.073896
3.566728	-2.417547	0.037377
2.845207	-2.421258	0.002543
3.066376	-2.422514	-0.035058
3.297778	-2.416405	-0.074645
2.860567	-2.444227	0.843590
3.086632	-2.445593	0.841728
3.355026	-2.462295	0.847297
3.624392	-2.460214	0.848867
2.847978	-2.433470	0.695233
3.080706	-2.441598	0.689874
3.326281	-2.442539	0.683625
3.623793	-2.463782	0.683464
2.834806	-2.421958	0.550782
3.054207	-2.422246	0.537375
3.327798	-2.446336	0.529241
3.609601	-2.456898	0.517726
2.818725	-2.408219	0.410085
3.033317	-2.407231	0.389729
3.272040	-2.407195	0.370683
3.549106	-2.418260	0.351199
2.826419	-2.416927	0.274338
3.057677	-2.427259	0.250543
3.267026	-2.405264	0.221846
3.584936	-2.445423	0.196148
2.803288	-2.398672	0.137156
3.023964	-2.403079	0.106541
3.278413	-2.415766	0.073571
3.543600	-2.417770	0.037212
2.835486	-2.428024	0.002541
3.045623	-2.421331	-0.034906
3.278278	-2.417609	-0.074371
2.840477	-2.442177	0.839871
3.052353	-2.433713	0.834413
3.337210	-2.465008	0.844703
3.596562	-2.457475	0.844111
2.834534	-2.437068	0.693773
3.063961	-2.443669	0.687800
3.303698	-2.441592	0.680520
3.613771	-2.473214	0.683002
2.814609	-2.419680	0.548298
3.046761	-2.431604	0.537375
3.282800	-2.428807	0.523268
3.584843	-2.456173	0.515254
2.796249	-2.403897	0.407887
3.012701	-2.405971	0.388027
3.250233	-2.406555	0.369047
3.535095	-2.424628	0.350547
2.810675	-2.418432	0.273529
3.038520	-2.427285	0.249582
3.247597	-2.406359	0.221027
3.543652	-2.433226	0.194297
2.784557	-2.397481	0.136599
3.008770	-2.406102	0.106265
3.258940	-2.416879	0.073300
3.525450	-2.421271	0.037099
2.820448	-2.430184	0.002534
3.029591	-2.423792	-0.034807
3.245154	-2.408587	-0.073787
2.834447	-2.452157	0.840309
3.042584	-2.441230	0.833786
3.290311	-2.446005	0.834728
3.589006	-2.468498	0.844111
2.810686	-2.431600	0.689758
3.045695	-2.444426	0.685380
3.267694	-2.430520	0.674636
3.564670	-2.455702	0.675142
2.799690	-2.421831	0.546837
3.023839	-2.428534	0.534643
3.254649	-2.423465	0.519963
3.545409	-2.445172	0.510662
2.780592	-2.405311	0.406677
2.989794	-2.402737	0.386024
3.235648	-2.411160	0.368229
3.509596	-2.423004	0.348754
2.788163	-2.413988	0.272058
3.013947	-2.422840	0.248173
3.232995	-2.410939	0.220536
3.518091	-2.431590	0.193303
2.770390	-2.400123	0.136264
2.982684	-2.400280	0.105603
3.231478	-2.411915	0.072849
3.504022	-2.422409	0.036952
2.799379	-2.427034	0.002522
3.010457	-2.423669	-0.034672
3.232143	-2.414343	-0.073659
2.829854	-2.463404	0.841184
3.009211	-2.429666	0.826679
3.265530	-2.443173	0.830339
3.561237	-2.465526	0.839355
2.787639	-2.426655	0.685926
3.009830	-2.430861	0.678984
3.242057	-2.426935	0.670877
3.542504	-2.456492	0.672368
2.779562	-2.419368	0.544352
3.001736	-2.425969	0.532049
3.231324	-2.421542	0.517421
3.510971	-2.437350	0.506776
2.764953	-2.406652	0.405468
2.969256	-2.401262	0.384322
3.221065	-2.415698	0.367411
3.480047	-2.418403	0.346553
2.773976	-2.416634	0.271396
2.997190	-2.424544	0.247404
3.218396	-2.415452	0.220045
3.488473	-2.426968	0.192084
2.753975	-2.400732	0.135819
2.965984	-2.401870	0.105273
3.203278	-2.406204	0.072379
3.482620	-2.423438	0.036805
2.770067	-2.416547	0.002502
2.994460	-2.425970	-0.034574
3.205540	-2.409829	-0.073221
2.786317	-2.440570	0.830464
3.019199	-2.453070	0.831486
3.261150	-2.455538	0.831137
3.491636	-2.433221	0.824706
2.786838	-2.441026	0.687569
2.983250	-2.424554	0.674663
3.233808	-2.436277	0.670714
3.515506	-2.453777	0.668670
2.758731	-2.416152	0.541722
2.965842	-2.412040	0.526996
3.204873	-2.417110	0.514371
3.483941	-2.434459	0.503950
2.752322	-2.410540	0.404698
2.947213	-2.398427	0.382419
3.200126	-2.415370	0.365866
3.465261	-2.423927	0.345820
2.759049	-2.418559	0.270660
2.968067	-2.416088	0.245611
3.203799	-2.419898	0.219553
3.473646	-2.432502	0.191678
2.736830	-2.400603	0.135336
2.933029	-2.390120	0.104363
3.184715	-2.407579	0.072126
3.457150	-2.421490	0.036614
2.757379	-2.420416	0.002497
2.979253	-2.428827	-0.034484
3.193347	-2.416032	-0.073112
2.772228	-2.443301	0.828495
3.001817	-2.454275	0.828769
3.245792	-2.459613	0.829142
3.474510	-2.437156	0.822423
2.765321	-2.437213	0.684102
2.976560	-2.434318	0.674836
3.205093	-2.430093	0.666301
3.485324	-2.448646	0.664355
2.743883	-2.418064	0.540260
2.957662	-2.420500	0.526859
3.184011	-2.416736	0.512210
3.459398	-2.433139	0.501478
2.732237	-2.407801	0.402829
2.932142	-2.401154	0.381418
3.168117	-2.406503	0.363049
3.443139	-2.424219	0.344353
2.744137	-2.420416	0.269924
2.943656	-2.411270	0.244202
3.183641	-2.420048	0.218680
3.447387	-2.429910	0.190639
2.716715	-2.397747	0.134704
2.917953	-2.392769	0.104087
3.165378	-2.408257	0.071855
3.438263	-2.424018	0.036492
2.747692	-2.426878	0.002495
2.960191	-2.428442	-0.034349
3.164442	-2.409464	-0.072619
2.695364	-2.390289	0.807711
2.987476	-2.457881	0.826888
3.180572	-2.425587	0.814378
3.487868	-2.462526	0.827369
2.754888	-2.443076	0.683372
2.959951	-2.435928	0.672761
3.205465	-2.445899	0.667935
3.460047	-2.446777	0.660964
2.723129	-2.414657	0.537630
2.931104	-2.413819	0.523445
3.163970	-2.416859	0.510176
3.437329	-2.433412	0.499358
2.704758	-2.398367	0.399861
2.918619	-2.405077	0.380617
3.146478	-2.405324	0.361414
3.414543	-2.419788	0.342234
2.722526	-2.416246	0.268527
2.928544	-2.413942	0.243562
3.150031	-2.409783	0.216878
3.417917	-2.424868	0.189420
2.706358	-2.403416	0.134556
2.902117	-2.394711	0.103784
3.149242	-2.411271	0.071657
3.409607	-2.419509	0.036267
2.729769	-2.425997	0.002486
2.918025	-2.408866	-0.033946
3.143543	-2.408823	-0.072309
2.709131	-2.417387	0.814056
2.950544	-2.442714	0.818736
3.179334	-2.440107	0.815974
3.465092	-2.462410	0.823755
2.741511	-2.446279	0.681912
2.942602	-2.436831	0.670514
3.172907	-2.436494	0.662706
3.442060	-2.449933	0.658961
2.698730	-2.407852	0.534269
2.910718	-2.412055	0.521124
3.139240	-2.413255	0.507380
3.415289	-2.433574	0.497239
2.686262	-2.396728	0.398212
2.894377	-2.400047	0.378414
3.109090	-2.391891	0.357960
3.386818	-2.415783	0.340196
2.706918	-2.417280	0.267717
2.909603	-2.413359	0.242601
3.132337	-2.411517	0.216168
3.402332	-2.429538	0.188968
2.684068	-2.398391	0.133813
2.885528	-2.395941	0.103453
3.132326	-2.413598	0.071440
3.394845	-2.424728	0.036189
2.713368	-2.426361	0.002478
2.901391	-2.410139	-0.033838
3.128221	-2.412350	-0.072126
2.698798	-2.423080	0.813181
2.928760	-2.439862	0.814765
3.151670	-2.434276	0.810787
3.421589	-2.447328	0.815194
2.722287	-2.444169	0.678992
2.927545	-2.439542	0.668786
3.135754	-2.423294	0.656495
3.408021	-2.441493	0.653875
2.678079	-2.404224	0.531638
2.888848	-2.408919	0.518529
3.127899	-2.419840	0.506745
3.395703	-2.435359	0.495473
2.672240	-2.398982	0.397222
2.877068	-2.400629	0.377112
3.083626	-2.387397	0.355870
3.369675	-2.419187	0.339218
2.677977	-2.406243	0.265584
2.897588	-2.418437	0.242217
3.116242	-2.414389	0.215567
3.373771	-2.424806	0.187794
2.667037	-2.397928	0.133330
2.868958	-2.397091	0.103122
3.112264	-2.413394	0.071151
3.362220	-2.417037	0.035920
2.691787	-2.421966	0.002465
2.887845	-2.413899	-0.033766
3.114486	-2.417032	-0.071980
2.687731	-2.428077	0.812087
2.912268	-2.441297	0.812257
3.140318	-2.440927	0.809790
3.415658	-2.458961	0.815574
2.682674	-2.423509	0.670963
2.905707	-2.436488	0.665501
3.136092	-2.438959	0.658130
3.403721	-2.454248	0.654492
2.669222	-2.411103	0.531346
2.868544	-2.406946	0.516207
3.111068	-2.422113	0.505219
3.366475	-2.430073	0.492293
2.653066	-2.396509	0.395463
2.845306	-2.388971	0.373908
3.071574	-2.393173	0.355325
3.344465	-2.416671	0.337425
2.660225	-2.405084	0.264554
2.876400	-2.415763	0.241064
3.094646	-2.412886	0.214584
3.337178	-2.414066	0.186169
2.658185	-2.404758	0.133255
2.843227	-2.390443	0.102460
3.081987	-2.405093	0.070627
3.333725	-2.412101	0.035694
2.668776	-2.416119	0.002450
2.870477	-2.414379	-0.033650
3.096812	-2.418576	-0.071743
2.679547	-2.435656	0.811868
2.887572	-2.435718	0.807449
3.108888	-2.431834	0.803605
3.391403	-2.457332	0.811579
2.663585	-2.421147	0.668044
2.877141	-2.427606	0.660661
3.102957	-2.428504	0.652737
3.370586	-2.446108	0.649560
2.652296	-2.410631	0.529446
2.842980	-2.400397	0.512930
3.088788	-2.420023	0.502805
3.337312	-2.424630	0.489114
2.632462	-2.392604	0.393484
2.831883	-2.392552	0.373107
3.060299	-2.399513	0.354870
3.330586	-2.422231	0.336773
2.649883	-2.410550	0.264260
2.846108	-2.405252	0.239143
3.071518	-2.410042	0.213492
3.309566	-2.409593	0.185040
2.636015	-2.399449	0.132512
2.826722	-2.391407	0.102129
3.067516	-2.408979	0.070464
3.315801	-2.414665	0.035581
2.654697	-2.418234	0.002444
2.856187	-2.417361	-0.033569
2.649021	-2.422791	0.804867
2.872630	-2.438237	0.805359
3.094483	-2.435905	0.801810
3.371950	-2.459048	0.808725
2.639458	-2.414045	0.663847
2.861420	-2.429410	0.658760
3.087741	-2.431908	0.651102
3.350299	-2.447113	0.647095
2.621527	-2.397393	0.524770
2.828052	-2.402694	0.511564
3.074339	-2.423961	0.501661
3.303405	-2.415514	0.485229
2.612640	-2.389266	0.391615
2.824529	-2.401229	0.373107
3.045105	-2.402722	0.353962
3.306250	-2.420075	0.335061
2.637325	-2.413955	0.263745
2.825031	-2.402335	0.237990
3.049220	-2.407697	0.212455
3.294905	-2.414422	0.184634
2.612429	-2.392676	0.131695
2.811761	-2.393588	0.101854
3.046776	-2.407839	0.070157
3.295473	-2.415368	0.035443
2.635471	-2.415556	0.002433
2.839622	-2.418332	-0.033461
2.678038	-2.465930	0.960483
2.659526	-2.447426	0.810337
2.856213	-2.439418	0.802851
3.074706	-2.435653	0.798618
3.339855	-2.451374	0.802828
2.623357	-2.414142	0.661657
2.840474	-2.426661	0.655648
3.076400	-2.438306	0.650285
3.330039	-2.448017	0.644629
2.606152	-2.398057	0.523163
2.816150	-2.407496	0.510745
3.053678	-2.422901	0.499500
3.283982	-2.416808	0.483463
2.598715	-2.391213	0.390626
2.813369	-2.406649	0.372606
3.019781	-2.397810	0.351872
3.280354	-2.416611	0.333187
2.621837	-2.414603	0.262935
2.810823	-2.405152	0.237413
3.030874	-2.408343	0.211691
3.285070	-2.422740	0.184498
2.596992	-2.393230	0.131286
2.796812	-2.395700	0.101578
3.026854	-2.407218	0.069868
3.285633	-2.423686	0.035417
2.622167	-2.418207	0.002428
2.825355	-2.421176	-0.033381
2.661949	-2.466249	0.957421
2.647709	-2.451596	0.809024
2.839074	-2.439883	0.800133
3.065686	-2.443852	0.798219
3.338636	-2.466276	0.804350
2.603674	-2.410823	0.658555
2.826293	-2.429585	0.654093
3.063506	-2.443426	0.649141
3.309010	-2.448231	0.642009
2.592975	-2.400664	0.521994
2.799738	-2.408373	0.509106
3.033053	-2.421737	0.497339
3.262986	-2.416824	0.481461
2.579697	-2.388371	0.388867
2.796169	-2.406831	0.371304
3.003853	-2.400225	0.350872
3.251308	-2.410636	0.330986
2.601250	-2.410434	0.261611
2.798138	-2.409206	0.236965
3.014893	-2.410771	0.211090
3.267996	-2.425662	0.183956
2.581577	-2.393712	0.130878
2.784149	-2.399701	0.101385
3.007745	-2.407122	0.069597
3.262124	-2.421833	0.035243
2.604473	-2.416718	0.002418
2.811856	-2.424609	-0.033309
2.642346	-2.463196	0.953084
2.626610	-2.447070	0.804867
2.820480	-2.438987	0.796998
3.045945	-2.443436	0.795026
3.301903	-2.454834	0.797311
2.611373	-2.432874	0.662387
2.815102	-2.435023	0.653228
3.045224	-2.444168	0.646853
3.292766	-2.451880	0.640314
2.580531	-2.403888	0.520971
2.777356	-2.403985	0.506375
3.000093	-2.410529	0.493145
3.229282	-2.407238	0.477575
2.565085	-2.389499	0.387767
2.778242	-2.406279	0.369902
2.984057	-2.399445	0.349418
3.231116	-2.411063	0.329682
2.577066	-2.402761	0.259919
2.784699	-2.412551	0.236453
2.985700	-2.402482	0.209561
3.249334	-2.427307	0.183324
2.565453	-2.393441	0.130432
2.772243	-2.404302	0.101219
2.993337	-2.410694	0.069435
3.236254	-2.418064	0.035044
2.589006	-2.417190	0.002411
2.796851	-2.426671	-0.033219
2.620672	-2.458061	0.947982
2.833097	-2.464000	0.949944
2.606276	-2.443104	0.800929
2.803393	-2.439284	0.794281
3.032334	-2.447845	0.793430
3.280207	-2.454366	0.793887
2.600310	-2.437512	0.661475
2.798702	-2.435889	0.651154
3.025431	-2.443581	0.644238
3.278903	-2.457231	0.639081
2.560152	-2.399616	0.518340
2.758015	-2.402084	0.504190
2.975715	-2.406002	0.490349
3.219499	-2.415346	0.477222
2.548314	-2.388521	0.386338
2.756595	-2.402371	0.368000
2.965069	-2.399192	0.348055
3.198201	-2.401812	0.327074
2.565318	-2.406563	0.259478
2.766753	-2.411903	0.235556
2.970555	-2.405347	0.209015
3.226701	-2.425858	0.182466
2.552269	-2.395829	0.130135
2.753556	-2.402937	0.100806
2.976606	-2.412312	0.069218
3.207241	-2.411754	0.034809
2.568459	-2.412797	0.002399
2.782613	-2.429321	-0.033138
2.599758	-2.453480	0.943135
2.820417	-2.468211	0.948228
2.585281	-2.438368	0.796773
2.785596	-2.438854	0.791354
3.021007	-2.454047	0.792433
3.256977	-2.452607	0.790082
2.577084	-2.430637	0.657460
2.785288	-2.439272	0.649771
3.011030	-2.447251	0.642767
3.259516	-2.458354	0.636769
2.542702	-2.397957	0.516294
2.744673	-2.405311	0.503097
2.947546	-2.398217	0.486917
3.200978	-2.416835	0.475574
2.535190	-2.390872	0.385458
2.739487	-2.402288	0.366698
2.946883	-2.399474	0.346782
3.185252	-2.407406	0.326504
2.555747	-2.412368	0.259257
2.748087	-2.410509	0.234595
2.956969	-2.409404	0.208578
3.209683	-2.428513	0.181925
2.539821	-2.398845	0.129875
2.737157	-2.403458	0.100475
2.953694	-2.408795	0.068857
3.191854	-2.415548	0.034723
2.552323	-2.412423	0.002391
2.763878	-2.427947	-0.033004
2.587310	-2.456784	0.941349
2.798280	-2.464039	0.943322
2.564340	-2.433526	0.792616
2.769295	-2.439632	0.788846
2.992221	-2.445939	0.786847
3.236918	-2.453100	0.787038
2.556777	-2.426349	0.654176
2.777053	-2.447155	0.649598
2.989762	-2.445235	0.639826
3.238579	-2.458187	0.634150
2.525286	-2.396214	0.514248
2.727621	-2.405203	0.501322
2.924057	-2.394054	0.484248
3.186432	-2.421237	0.474514
2.523517	-2.394534	0.384799
2.725389	-2.404757	0.365797
2.934116	-2.404086	0.346146
3.168332	-2.409926	0.325526
2.543272	-2.415390	0.258742
2.733945	-2.412985	0.234019
2.939526	-2.410234	0.207868
3.182348	-2.423219	0.180796
2.523033	-2.397676	0.129392
2.717785	-2.401255	0.100034
2.927741	-2.402623	0.068423
3.174882	-2.418059	0.034619
2.539113	-2.414729	0.002385
2.735438	-2.417873	-0.032753
2.573469	-2.458699	0.939053
2.780549	-2.463612	0.939888
2.547687	-2.432622	0.789772
2.744234	-2.432548	0.783830
2.976379	-2.448261	0.784652
3.215326	-2.452303	0.783613
2.547188	-2.432145	0.653628
2.757003	-2.444554	0.646660
2.963964	-2.439350	0.635903
3.208252	-2.450718	0.629681
2.508621	-2.395069	0.512349
2.705409	-2.400410	0.498591
2.905216	-2.393553	0.482342
3.156901	-2.414111	0.471217
2.514002	-2.400206	0.384469
2.712790	-2.408483	0.365096
2.903675	-2.394071	0.343420
3.159340	-2.418424	0.325363
2.521429	-2.409401	0.257271
2.713098	-2.409433	0.232866
2.922105	-2.410980	0.207159
3.163798	-2.424464	0.180164
2.512054	-2.401952	0.129206
2.699946	-2.400283	0.099648
2.914959	-2.407137	0.068297
3.161099	-2.422921	0.034549
2.525190	-2.416285	0.002379
2.716052	-2.415621	-0.032609
2.557548	-2.458541	0.935992
2.764294	-2.464389	0.936945
2.533176	-2.433666	0.787584
2.732379	-2.437050	0.782575
2.956776	-2.447383	0.781460
3.200000	-2.456178	0.781711
2.535460	-2.435861	0.652533
2.732586	-2.437920	0.642684
2.940510	-2.435217	0.632471
3.176435	-2.441881	0.624903
2.496267	-2.397957	0.511326
2.688425	-2.400123	0.496816
2.894804	-2.399922	0.481833
3.156563	-2.429235	0.472277
2.495874	-2.397579	0.382820
2.676450	-2.390943	0.361190
2.886353	-2.394701	0.342239
3.134535	-2.414724	0.323569
2.506118	-2.409522	0.256461
2.698252	-2.411096	0.232226
2.902403	-2.409728	0.206285
3.144479	-2.425008	0.179486
2.494591	-2.399949	0.128686
2.685864	-2.402557	0.099400
2.896026	-2.406484	0.068026
3.141774	-2.423447	0.034419
2.512002	-2.418473	0.002374
2.698941	-2.415273	-0.032493
2.544434	-2.460998	0.933951
2.742287	-2.459912	0.932039
2.975773	-2.476685	0.939712
2.522189	-2.438036	0.786490
2.713245	-2.434971	0.779231
2.930430	-2.440765	0.776473
3.183126	-2.458782	0.779428
2.517371	-2.433378	0.649796
2.713367	-2.435765	0.639918
2.906499	-2.422122	0.626751
3.158769	-2.443755	0.622900
2.481074	-2.398041	0.509718
2.676627	-2.404387	0.495996
2.876765	-2.399896	0.480054
3.116120	-2.413370	0.467331
2.478501	-2.395554	0.381281
2.660222	-2.391161	0.359989
2.870584	-2.396525	0.341239
3.102694	-2.405398	0.321043
2.488678	-2.407492	0.255431
2.678226	-2.408020	0.231137
2.885801	-2.410939	0.205630
3.124397	-2.424844	0.178764
2.467112	-2.388130	0.127646
2.676251	-2.408780	0.099317
2.865618	-2.396116	0.067484
3.120106	-2.422037	0.034263
2.495233	-2.417123	0.002365
2.672198	-2.406145	-0.032259
2.525784	-2.458004	0.929870
2.731129	-2.465065	0.930813
2.951026	-2.471452	0.934287
2.511200	-2.442361	0.785397
2.694875	-2.433453	0.776096
2.913916	-2.442191	0.774078
3.154640	-2.452268	0.774291
2.509189	-2.440404	0.649614
2.691994	-2.431534	0.636634
2.889227	-2.422787	0.624627
3.142681	-2.446758	0.621205
2.463068	-2.395296	0.507526
2.666299	-2.409931	0.495450
2.865590	-2.405522	0.479418
3.103219	-2.418646	0.466507
2.459027	-2.391367	0.379411
2.651398	-2.397976	0.359789
2.850255	-2.394431	0.339694
3.081941	-2.404484	0.319657
2.471990	-2.406073	0.254475
2.670086	-2.415556	0.231073
2.863869	-2.407573	0.204592
3.096473	-2.418430	0.177590
2.451898	-2.388018	0.127237
2.662921	-2.411611	0.099096
2.849838	-2.397816	0.067285
3.100840	-2.422364	0.034133
2.481361	-2.418485	0.002359
2.653688	-2.404261	-0.032125
2.511323	-2.458976	0.927319
2.706329	-2.457790	0.924927
2.930054	-2.469222	0.930041
2.498116	-2.444594	0.783646
2.678711	-2.433818	0.773588
2.891428	-2.438485	0.770088
3.131637	-2.449837	0.770487
2.491852	-2.438464	0.647059
2.677232	-2.433157	0.634905
2.873486	-2.424641	0.622829
3.121160	-2.445419	0.618431
2.445101	-2.392464	0.505334
2.644235	-2.404769	0.492719
2.844557	-2.402781	0.477131
3.077031	-2.413446	0.463681
2.442443	-2.389863	0.377982
2.632990	-2.396055	0.358286
2.839093	-2.399949	0.339240
3.064359	-2.405926	0.318598
2.462459	-2.411552	0.254254
2.649378	-2.411645	0.229920
2.851895	-2.412479	0.204265
3.078043	-2.419276	0.176958
2.438851	-2.389934	0.126940
2.637038	-2.402937	0.098407
2.837127	-2.402025	0.067159
3.068238	-2.412090	0.033855
2.463219	-2.415584	0.002348
2.638170	-2.404981	-0.032026
2.498945	-2.461919	0.925533
2.687325	-2.455618	0.921002
2.915794	-2.472543	0.927918
2.482956	-2.444716	0.781240
2.664014	-2.435426	0.771497
2.872726	-2.437833	0.767096
3.107907	-2.446681	0.766491
2.481557	-2.443338	0.646329
2.652310	-2.425407	0.630757
2.854753	-2.423867	0.620378
3.105108	-2.448254	0.616736
2.433520	-2.395790	0.504457
2.610535	-2.388795	0.487802
2.825835	-2.401861	0.475224
3.043889	-2.402571	0.459796
2.418809	-2.381307	0.375454
2.604346	-2.384636	0.355383
2.818821	-2.397679	0.337695
3.046797	-2.407284	0.317538
2.445814	-2.409996	0.253298
2.617682	-2.397518	0.227807
2.836116	-2.414098	0.203664
3.059637	-2.420032	0.176325
2.415852	-2.381969	0.126123
2.616391	-2.398857	0.097911
2.825177	-2.406828	0.067051
3.051413	-2.414047	0.033751
2.451526	-2.418915	0.002344
2.625621	-2.408332	-0.031963
2.483826	-2.462087	0.922727
2.664792	-2.450072	0.915851
2.900063	-2.474539	0.925324
3.138006	-2.482533	0.930385
2.467819	-2.444768	0.778833
2.649333	-2.436968	0.769407
2.857782	-2.440272	0.765101
3.093460	-2.450717	0.764779
2.458682	-2.435716	0.642315
2.636159	-2.425530	0.628683
2.835302	-2.422361	0.617763
3.079006	-2.443030	0.613037
2.416319	-2.393498	0.502412
2.587889	-2.382702	0.484935
2.810161	-2.403428	0.473826
3.034949	-2.410663	0.459560
2.403018	-2.380323	0.374134
2.588237	-2.384524	0.354181
2.812965	-2.407611	0.337877
3.030035	-2.409176	0.316560
2.420703	-2.399935	0.251459
2.597105	-2.393365	0.226654
2.809737	-2.406549	0.202299
3.022497	-2.405767	0.174610
2.397891	-2.378813	0.125565
2.586242	-2.385861	0.097056
2.810948	-2.409628	0.066888
3.029128	-2.411563	0.033586
2.438416	-2.420789	0.002339
2.608667	-2.407559	-0.031847
2.464623	-2.458088	0.918390
2.652993	-2.454286	0.914380
2.885821	-2.477727	0.923201
3.108276	-2.474555	0.923817
2.449249	-2.441306	0.775333
2.632514	-2.436449	0.766690
2.838390	-2.438811	0.761909
3.075180	-2.451629	0.762116
2.440752	-2.432837	0.639578
2.624368	-2.429591	0.627645
2.824117	-2.427832	0.616945
3.059142	-2.442600	0.610571
2.399855	-2.391821	0.500512
2.582747	-2.392650	0.485344
2.799015	-2.408803	0.473190
3.006595	-2.403223	0.456381
2.392888	-2.384878	0.373694
2.574341	-2.386366	0.353280
2.795755	-2.407782	0.336695
3.013291	-2.410989	0.315582
2.402738	-2.396786	0.250355
2.588286	-2.399965	0.226526
2.795534	-2.409291	0.201808
3.002627	-2.405036	0.173887
2.387046	-2.382628	0.125380
2.584772	-2.399224	0.097277
2.795214	-2.411057	0.066689
3.013911	-2.414593	0.033500
2.413290	-2.410591	0.002322
2.591743	-2.406705	-0.031730
2.445467	-2.453994	0.914053
2.638355	-2.455809	0.911927
2.858352	-2.469416	0.916833
3.084706	-2.471291	0.919061
2.437614	-2.444662	0.774020
2.610713	-2.431185	0.762509
2.819034	-2.437253	0.758717
3.056923	-2.452451	0.759452
2.427029	-2.434047	0.637935
2.599605	-2.421519	0.623497
2.810686	-2.431322	0.615638
3.039310	-2.442072	0.608106
2.382028	-2.388665	0.498320
2.571771	-2.397185	0.484661
2.778115	-2.405691	0.470903
3.005398	-2.417415	0.457323
2.377840	-2.384466	0.372485
2.560460	-2.388145	0.352378
2.782335	-2.411130	0.335968
2.998117	-2.413972	0.314767
2.389742	-2.398494	0.249766
2.569236	-2.397002	0.225501
2.776059	-2.407389	0.200934
2.982789	-2.404206	0.173165
2.379725	-2.389940	0.125380
2.560596	-2.391450	0.096642
2.775723	-2.409135	0.066400
2.997926	-2.416925	0.033404
2.403062	-2.415148	0.002319
2.569734	-2.400992	-0.031551
2.429081	-2.452554	0.910737
2.610996	-2.445336	0.905059
2.830960	-2.460959	0.910464
3.066494	-2.472184	0.915890
2.422547	-2.444506	0.771614
2.600387	-2.436509	0.761673
2.806369	-2.441388	0.757320
3.036399	-2.451334	0.756218
2.413321	-2.435196	0.636293
2.584259	-2.422074	0.621595
2.790563	-2.428922	0.612860
3.018743	-2.440824	0.605486
2.372599	-2.393854	0.497881
2.559347	-2.400320	0.483705
2.763243	-2.407687	0.469632
2.961689	-2.397259	0.451789
2.357919	-2.379043	0.370506
2.550944	-2.393947	0.352078
2.764416	-2.410492	0.334696
2.982179	-2.416257	0.313871
2.376057	-2.399436	0.249104
2.553139	-2.396677	0.224733
2.758879	-2.407360	0.200224
2.960658	-2.401389	0.172307
2.369570	-2.394389	0.125231
2.553247	-2.399295	0.096642
2.750245	-2.401855	0.065967
2.981955	-2.419181	0.033309
2.382984	-2.409710	0.002307
2.557984	-2.404755	-0.031497
2.414762	-2.453104	0.908185
2.596426	-2.446687	0.902607
2.812425	-2.460036	0.906926
3.052087	-2.476058	0.913852
2.403395	-2.440108	0.767895
2.585073	-2.437096	0.759374
2.787068	-2.439660	0.754128
3.017435	-2.451353	0.753365
2.396179	-2.432782	0.633738
2.567500	-2.421206	0.619348
2.777903	-2.432922	0.611716
3.002809	-2.443214	0.603791
2.361078	-2.396893	0.497005
2.535399	-2.392523	0.480565
2.749877	-2.410922	0.468615
2.955861	-2.407588	0.452025
2.345726	-2.381309	0.369737
2.537800	-2.396297	0.351277
2.751768	-2.414364	0.334060
2.955440	-2.409649	0.311833
2.363788	-2.401739	0.248589
2.542146	-2.401072	0.224412
2.730472	-2.397367	0.198695
2.941668	-2.400986	0.171629
2.349599	-2.388824	0.124562
2.539337	-2.400936	0.096394
2.734601	-2.403021	0.065768
2.964449	-2.420097	0.033196
2.369972	-2.411304	0.002301
2.535339	-2.398161	-0.031308
2.398435	-2.451516	0.904869
2.576244	-2.442634	0.898192
2.798299	-2.462874	0.904803
3.036931	-2.479250	0.911587
2.388389	-2.439800	0.765488
2.569070	-2.436939	0.756866
2.774423	-2.443666	0.752731
2.999259	-2.451900	0.750701
2.377700	-2.428880	0.630819
2.543626	-2.413479	0.615373
2.764504	-2.436215	0.610408
2.986890	-2.445530	0.602095
2.337796	-2.387867	0.493643
2.525174	-2.397562	0.480018
2.732054	-2.410161	0.466835
2.933100	-2.404056	0.449670
2.332847	-2.382812	0.368857
2.527551	-2.401330	0.350876
2.718218	-2.399727	0.330879
2.943410	-2.414912	0.311344
2.342461	-2.394722	0.247118
2.528258	-2.402673	0.223836
2.715621	-2.399121	0.198149
2.933516	-2.409365	0.171584
2.334575	-2.388160	0.124154
2.523268	-2.400447	0.096063
2.720475	-2.405439	0.065605
2.948511	-2.422198	0.033101
2.354178	-2.409980	0.002293
2.387532	-2.455397	0.903593
2.567335	-2.449188	0.897701
2.777635	-2.459851	0.900557
3.013506	-2.475572	0.906831
2.381573	-2.447815	0.765707
2.550263	-2.434007	0.753522
2.744913	-2.432668	0.746746
2.972010	-2.444874	0.745755
2.362695	-2.428412	0.628812
2.531935	-2.417191	0.614335
2.745945	-2.434867	0.607957
2.969460	-2.446515	0.600092
2.317351	-2.381557	0.490867
2.505629	-2.393665	0.477697
2.709069	-2.404703	0.464166
2.922646	-2.410516	0.449199
2.319287	-2.383547	0.367868
2.515138	-2.404260	0.350175
2.684784	-2.384907	0.327699
2.926765	-2.416316	0.310366
2.333713	-2.400467	0.246971
2.513662	-2.403521	0.223196
2.700785	-2.400807	0.197603
2.915330	-2.409444	0.170952
2.315399	-2.383127	0.123522
2.507948	-2.400574	0.095760
2.705612	-2.407128	0.065425
2.924110	-2.417216	0.032910
2.340504	-2.410733	0.002287
2.376628	-2.459234	0.902318
2.553514	-2.451011	0.895494
2.764270	-2.463189	0.898670
2.999891	-2.479841	0.905019
2.369304	-2.450200	0.764176
2.523034	-2.422854	0.747669
2.730123	-2.434556	0.744751
2.953151	-2.444590	0.742901
2.348399	-2.428581	0.626987
2.521666	-2.422218	0.613644
2.725211	-2.431457	0.605015
2.952052	-2.447415	0.598089
2.301781	-2.380122	0.489113
2.488989	-2.392417	0.475921
2.679485	-2.393181	0.460353
2.899190	-2.406153	0.446726
2.301599	-2.379934	0.366218
2.499861	-2.404379	0.349074
2.672258	-2.388487	0.327062
2.910138	-2.417642	0.309388
2.315942	-2.396857	0.245867
2.499803	-2.404995	0.222619
2.677033	-2.394437	0.196402
2.901012	-2.412628	0.170546
2.305300	-2.387344	0.123374
2.491212	-2.399242	0.095402
2.689275	-2.407415	0.065208
2.902843	-2.414665	0.032754
2.318515	-2.402791	0.002273
2.363714	-2.460935	0.900277
2.536918	-2.450079	0.892305
2.751636	-2.467117	0.897019
2.969804	-2.470346	0.898225
2.355691	-2.451126	0.762207
2.503633	-2.419032	0.744116
2.713889	-2.435068	0.742357
2.935831	-2.445470	0.740428
2.337531	-2.432230	0.626074
2.512099	-2.427889	0.613125
2.706727	-2.429921	0.602564
2.922527	-2.438105	0.593620
2.286242	-2.378614	0.487360
2.472380	-2.391089	0.474146
2.666966	-2.396750	0.459464
2.889508	-2.413126	0.446373
2.294976	-2.387701	0.366328
2.481748	-2.401658	0.347572
2.656032	-2.388683	0.325972
2.882061	-2.409299	0.307187
2.302361	-2.397477	0.245205
2.481658	-2.402241	0.221658
2.663737	-2.397295	0.195965
2.889000	-2.417670	0.170275
2.293122	-2.389358	0.123113
2.465175	-2.388787	0.094685
2.669990	-2.404948	0.064919
2.879318	-2.410081	0.032572
2.300750	-2.399066	0.002263
2.351479	-2.463279	0.898491
2.523131	-2.451770	0.890098
2.724572	-2.457972	0.890651
2.953248	-2.471944	0.895507
2.329288	-2.438584	0.756081
2.485682	-2.416477	0.740980
2.696222	-2.434189	0.739564
2.923048	-2.450051	0.739096
2.324625	-2.433702	0.624615
2.491222	-2.422538	0.609841
2.688278	-2.428294	0.600112
2.903682	-2.437531	0.591308
2.274834	-2.381325	0.486483
2.458643	-2.392445	0.472917
2.655922	-2.401594	0.458828
2.869167	-2.411119	0.444371
2.278027	-2.384668	0.364789
2.464388	-2.399543	0.346170
2.644260	-2.392811	0.325427
2.860927	-2.406581	0.305720
2.292241	-2.401644	0.244911
2.464982	-2.400792	0.220826
2.627504	-2.379317	0.193836
2.873927	-2.420087	0.169823
2.282332	-2.392767	0.122928
2.453540	-2.392152	0.094519
2.641856	-2.394328	0.064413
2.855849	-2.405376	0.032389
2.281650	-2.393808	0.002251
2.333262	-2.459259	0.894410
2.507279	-2.451366	0.887154
2.708383	-2.458481	0.887820
2.930006	-2.467816	0.890751
2.314406	-2.437935	0.753674
2.475460	-2.421356	0.740144
2.682214	-2.436520	0.737769
2.886250	-2.434322	0.731677
2.309701	-2.432979	0.622607
2.476033	-2.422593	0.607940
2.666214	-2.423259	0.596844
2.887887	-2.439414	0.589613
2.255938	-2.376097	0.483999
2.444921	-2.393739	0.471688
2.645607	-2.407061	0.458320
2.853415	-2.412857	0.443076
2.266595	-2.387321	0.364129
2.448486	-2.398737	0.344968
2.632489	-2.396890	0.324881
2.846684	-2.409552	0.304987
2.271134	-2.394194	0.243440
2.447626	-2.398565	0.219929
2.617978	-2.385350	0.193672
2.855819	-2.419852	0.169191
2.270167	-2.394681	0.122668
2.443335	-2.396868	0.094409
2.627848	-2.396359	0.064251
2.842353	-2.408954	0.032320
2.277734	-2.404427	0.002254
2.315756	-2.455853	0.890583
2.487307	-2.446810	0.882739
2.690783	-2.457604	0.884518
2.909046	-2.465458	0.886674
2.304907	-2.442894	0.753018
2.463838	-2.424823	0.738890
2.661707	-2.432838	0.734178
2.870535	-2.436178	0.729584
2.293454	-2.430756	0.620235
2.467186	-2.428796	0.607594
2.655854	-2.428765	0.596190
2.874367	-2.443144	0.588380
2.245921	-2.380128	0.483414
2.433331	-2.397058	0.470869
2.633820	-2.411148	0.457557
2.839192	-2.415808	0.442016
2.256531	-2.391372	0.363690
2.432612	-2.397856	0.343767
2.619983	-2.400246	0.324245
2.834725	-2.414396	0.304498
2.260358	-2.397523	0.243072
2.426754	-2.392750	0.218712
2.597399	-2.381225	0.192689
2.830137	-2.413047	0.168107
2.258698	-2.397271	0.122445
2.434547	-2.402949	0.094354
2.615327	-2.399678	0.064124
2.829624	-2.413120	0.032259
2.264177	-2.404851	0.002248
2.292343	-2.446014	0.884460
2.466697	-2.441471	0.878079
2.673928	-2.457299	0.881452
2.899245	-2.472475	0.885995
2.278712	-2.430024	0.746892
2.444575	-2.420673	0.735337
2.636199	-2.424409	0.729190
2.858567	-2.441148	0.728443
2.281951	-2.433478	0.619140
2.449226	-2.425957	0.605001
2.639679	-2.428885	0.594229
2.858598	-2.444886	0.586685
2.232518	-2.380513	0.482099
2.418226	-2.396841	0.469366
2.616926	-2.410481	0.455905
2.823469	-2.417403	0.440721
2.244425	-2.393209	0.362920
2.410409	-2.390594	0.341664
2.602355	-2.398823	0.322973
2.825791	-2.421785	0.304335
2.242763	-2.393530	0.241968
2.414443	-2.395264	0.218264
2.582742	-2.382412	0.192143
2.815139	-2.415213	0.167656
2.242453	-2.394706	0.121962
2.418652	-2.401954	0.094023
2.601341	-2.401586	0.063962
2.824484	-2.423744	0.032285
2.244490	-2.398643	0.002236
2.271647	-2.438885	0.879358
2.455073	-2.444923	0.876608
2.653534	-2.453615	0.877206
2.884994	-2.475650	0.883957
2.267920	-2.433435	0.745799
2.437136	-2.428162	0.735337
2.610049	-2.415182	0.724003
2.836917	-2.437750	0.724828
2.265760	-2.431117	0.616768
2.437586	-2.429288	0.603964
2.626423	-2.431610	0.592921
2.836105	-2.440754	0.583603
2.224530	-2.386628	0.481953
2.404548	-2.397953	0.468137
2.596424	-2.406362	0.453617
2.809268	-2.420220	0.439661
2.226906	-2.389177	0.361271
2.396724	-2.391653	0.340763
2.573079	-2.386480	0.320247
2.810800	-2.423934	0.303520
2.227933	-2.392371	0.241159
2.391544	-2.387150	0.216855
2.570297	-2.385570	0.191761
2.797885	-2.415352	0.167069
2.233053	-2.399380	0.121850
2.405615	-2.403710	0.093802
2.582972	-2.399348	0.063691
2.800383	-2.418021	0.032094
2.228267	-2.395998	0.002227
2.266125	-2.447971	0.880123
2.437973	-2.442837	0.873174
2.645994	-2.461745	0.877206
2.864115	-2.473031	0.879880
2.260444	-2.440381	0.745799
2.427604	-2.433551	0.734710
2.598324	-2.419172	0.722806
2.819028	-2.437452	0.722165
2.250941	-2.430122	0.614761
2.425253	-2.431873	0.602754
2.607401	-2.428898	0.590307
2.814412	-2.437155	0.580675
2.213836	-2.389813	0.481222
2.392285	-2.400407	0.467181
2.574520	-2.400787	0.451075
2.791325	-2.419721	0.438013
2.205381	-2.380686	0.358962
2.383759	-2.393355	0.339962
2.556280	-2.385530	0.319065
2.794317	-2.424707	0.302541
2.215164	-2.393340	0.240570
2.376464	-2.386697	0.216151
2.560777	-2.391399	0.191597
2.778395	-2.413443	0.166346
2.220253	-2.400351	0.121553
2.389065	-2.401866	0.093444
2.569756	-2.401800	0.063546
2.780874	-2.416107	0.031956
2.211403	-2.392541	0.002218
2.248784	-2.444238	0.876297
2.427737	-2.447552	0.872193
2.627078	-2.459225	0.873432
2.845485	-2.472224	0.876483
2.246337	-2.440126	0.743611
2.411864	-2.432653	0.732201
2.593035	-2.429142	0.723404
2.804130	-2.439646	0.720262
2.240811	-2.434123	0.614031
2.411540	-2.433006	0.601198
2.596338	-2.433512	0.589489
2.796493	-2.436691	0.578517
2.195103	-2.384221	0.478738
2.380030	-2.402808	0.466225
2.560633	-2.402566	0.449931
2.768173	-2.414565	0.435540
2.187969	-2.376472	0.357313
2.364505	-2.388636	0.338259
2.543141	-2.387908	0.318338
2.762090	-2.411637	0.299852
2.203084	-2.394987	0.240055
2.362813	-2.387593	0.215574
2.549790	-2.395826	0.191324
2.761200	-2.413409	0.165759
2.211526	-2.405680	0.121479
2.369035	-2.396388	0.092948
2.552906	-2.400768	0.063311
2.761403	-2.414097	0.031817
2.199993	-2.394896	0.002214
2.236054	-2.445417	0.874256
2.407965	-2.442562	0.867778
2.602543	-2.451282	0.867771
2.812222	-2.458505	0.868556
2.233571	-2.441247	0.741861
2.400271	-2.435862	0.730947
2.577014	-2.429020	0.721010
2.780382	-2.434011	0.716077
2.232669	-2.440261	0.613848
2.398535	-2.434780	0.599815
2.566610	-2.420483	0.584423
2.780832	-2.438094	0.576822
2.178428	-2.380727	0.476692
2.358052	-2.395274	0.463358
2.542431	-2.400197	0.448025
2.760006	-2.422391	0.435422
2.177312	-2.379507	0.356763
2.348792	-2.387368	0.337058
2.530736	-2.390911	0.317702
2.741200	-2.408259	0.298385
2.193708	-2.399526	0.239835
2.353377	-2.392696	0.215382
2.535898	-2.397464	0.190833
2.736529	-2.406695	0.164721
2.194698	-2.402125	0.120959
2.349762	-2.391523	0.092479
2.534635	-2.398281	0.063040
2.743473	-2.413311	0.031695
2.178477	-2.386126	0.002199
2.221388	-2.444395	0.871450
2.399103	-2.448553	0.867287
2.582314	-2.447223	0.863526
2.793696	-2.457471	0.865159
2.218850	-2.440146	0.739454
2.382523	-2.432735	0.727812
2.559596	-2.427475	0.718217
2.783215	-2.451614	0.718740
2.207312	-2.427459	0.608922
2.386230	-2.437201	0.598605
2.550584	-2.420197	0.582462
2.766670	-2.440731	0.575435
2.167121	-2.383007	0.475815
2.340301	-2.391876	0.461309
2.532178	-2.405253	0.447516
2.731719	-2.412442	0.432126
2.168665	-2.384705	0.356543
2.329631	-2.382469	0.335355
2.519058	-2.394548	0.317157
2.720357	-2.404775	0.296918
2.180970	-2.400340	0.239246
2.339049	-2.392769	0.214742
2.516955	-2.394221	0.189959
2.712674	-2.400515	0.163728
2.175226	-2.395530	0.120290
2.334731	-2.390854	0.092176
2.518575	-2.397773	0.062824
2.728568	-2.415089	0.031609
2.164426	-2.385392	0.002192
2.210638	-2.447611	0.870174
2.375348	-2.439233	0.861401
2.567057	-2.447757	0.860931
2.780308	-2.460866	0.863347
2.206773	-2.441875	0.737923
2.360724	-2.425317	0.723422
2.532286	-2.416375	0.712631
2.756578	-2.443211	0.713794
2.189966	-2.423277	0.606185
2.371186	-2.436745	0.596704
2.536725	-2.421880	0.580991
2.750302	-2.441336	0.573586
2.158473	-2.388177	0.475523
2.322592	-2.388392	0.459261
2.512597	-2.401360	0.445356
2.716140	-2.413556	0.430830
2.160005	-2.389873	0.356324
2.318844	-2.386037	0.334855
2.508101	-2.398823	0.316703
2.707009	-2.407811	0.296266
2.170923	-2.404059	0.238952
2.329611	-2.397786	0.214550
2.504548	-2.397099	0.189577
2.697089	-2.401518	0.163231
2.164519	-2.398483	0.120104
2.322512	-2.392984	0.091983
2.504709	-2.399264	0.062661
2.712931	-2.416133	0.031513
2.153749	-2.388308	0.002189
2.197305	-2.447905	0.867878
2.364482	-2.443026	0.860174
2.555328	-2.451585	0.859516
2.760380	-2.458372	0.859497
2.181667	-2.429033	0.732016
2.338994	-2.417788	0.719033
2.525568	-2.424811	0.712830
2.743941	-2.447082	0.712462
2.179893	-2.427058	0.605455
2.354797	-2.434804	0.594457
2.524303	-2.424867	0.579847
2.736167	-2.443839	0.572199
2.145847	-2.388900	0.474354
2.311123	-2.391232	0.458441
2.501643	-2.405620	0.444720
2.699839	-2.413934	0.429417
2.148014	-2.391312	0.355554
2.305983	-2.387415	0.334054
2.495707	-2.401673	0.316066
2.689955	-2.407463	0.295206
2.163537	-2.410708	0.238952
2.311846	-2.394154	0.213589
2.484955	-2.392997	0.188649
2.683013	-2.403782	0.162824
2.150478	-2.397673	0.119733
2.306137	-2.390746	0.091624
2.487258	-2.397223	0.062408
2.695825	-2.415770	0.031401
2.142407	-2.390436	0.002185
2.181417	-2.445255	0.864562
2.349583	-2.442583	0.857476
2.538705	-2.450639	0.856449
2.739768	-2.455129	0.855420
2.166407	-2.426979	0.729391
2.343765	-2.437642	0.722795
2.504726	-2.419613	0.709040
2.726921	-2.446966	0.709989
2.165235	-2.425667	0.603447
2.332982	-2.427105	0.590827
2.515433	-2.431228	0.579520
2.724247	-2.448259	0.571274
2.134555	-2.391044	0.473477
2.303089	-2.397597	0.458305
2.486410	-2.405696	0.443322
2.673226	-2.404938	0.426356
2.136696	-2.393442	0.354894
2.297958	-2.393760	0.333953
2.478311	-2.399620	0.314794
2.678853	-2.412370	0.294799
2.152148	-2.412869	0.238510
2.300344	-2.396915	0.213205
2.476168	-2.399220	0.188539
2.654107	-2.392604	0.161515
2.140452	-2.401276	0.119584
2.289799	-2.388429	0.091266
2.472714	-2.397882	0.062228
2.672805	-2.409967	0.031218
2.131738	-2.393264	0.002182
2.169415	-2.446872	0.862776
2.336719	-2.444174	0.855514
2.522810	-2.450291	0.853619
2.721372	-2.453739	0.852023
2.144057	-2.416826	0.724359
2.307900	-2.415126	0.714017
2.481832	-2.412260	0.704651
2.674952	-2.415188	0.698384
2.155825	-2.430092	0.602900
2.316000	-2.424281	0.588407
2.504425	-2.435495	0.578703
2.702066	-2.443352	0.568192
2.119331	-2.388702	0.471723
2.285462	-2.393904	0.456256
2.466224	-2.400859	0.441034
2.658473	-2.406464	0.425179
2.125385	-2.395525	0.354235
2.289230	-2.399359	0.333753
2.462377	-2.398873	0.313704
2.664054	-2.413885	0.293984
2.138119	-2.411998	0.237775
2.289536	-2.400351	0.212884
2.450206	-2.388683	0.187120
2.646755	-2.400736	0.161515
2.121148	-2.394367	0.118916
2.279012	-2.391824	0.091128
2.462483	-2.402664	0.062155
2.657252	-2.410765	0.031123
2.121734	-2.396798	0.002179
2.158062	-2.449163	0.861245
2.321196	-2.442898	0.852571
2.506245	-2.449190	0.850553
2.705175	-2.454223	0.849305
2.140504	-2.427784	0.725671
2.304520	-2.426450	0.715271
2.477923	-2.423289	0.705648
2.684970	-2.439226	0.702950
