x	y	z
-15.357345	20.076882	0.219266
-7.669718	12.691516	0.010094
-7.767749	11.855302	-0.127153
-12.251965	17.296808	-0.387009
-7.135699	11.819027	-0.496594
-7.692362	11.751874	-0.636088
-7.089672	11.756698	-0.995904
-10.560935	17.580126	6.268479
-11.473595	17.556515	6.163200
-12.340009	17.408079	6.041711
-12.296271	17.387511	4.335837
-13.313232	17.429016	4.250042
-11.463206	19.054948	4.127055
-11.503389	17.616199	3.692408
-12.327407	17.441222	3.538080
-13.327611	17.475011	3.427799
-11.437896	19.010622	3.277366
-11.454551	17.554122	2.889533
-12.267611	17.375916	2.725516
-13.143193	17.251932	2.571559
-8.260127	13.728938	1.772273
-8.586781	13.168296	1.582148
-13.058421	17.158046	1.763250
-11.078425	18.431357	1.586367
-11.489696	17.625452	1.350253
-7.448582	12.411453	0.009853
-7.737342	11.888296	-0.127252
-12.178702	17.305698	-0.386370
-7.091184	11.827150	-0.496019
-7.651916	11.768718	-0.635726
-8.172500	11.624167	-0.781252
-7.027435	11.734754	-0.992214
-10.482942	17.572202	6.254157
-11.387812	17.542543	6.146001
-12.260506	17.408883	6.028907
-12.201182	17.365822	4.321074
-13.158795	17.336838	4.217700
-11.412256	19.102687	4.129792
-11.487345	17.710078	3.704681
-12.208641	17.386110	3.519286
-13.258419	17.495343	3.423792
-8.399035	14.057262	2.418970
-11.499782	17.742136	2.914660
-12.204561	17.399666	2.723355
-13.090803	17.292965	2.571677
-8.231734	13.777252	1.775241
-11.400710	17.601399	2.110566
-12.132148	17.309919	1.928932
-12.978666	17.162255	1.759582
-10.999847	18.428436	1.583203
-11.522353	17.794647	1.360500
-15.401404	20.392565	0.221677
-7.700289	11.911138	-0.127243
-12.112947	17.324952	-0.385968
-8.885444	11.779922	-0.411636
-7.036459	11.817938	-0.494725
-7.598973	11.766124	-0.634323
-8.131653	11.641818	-0.780758
-6.981204	11.739114	-0.990767
-10.411923	17.575483	6.243926
-11.318861	17.554014	6.137825
-12.246202	17.502390	6.048249
-12.127656	17.374246	4.313892
-13.110866	17.384183	4.219413
-11.383696	19.188346	4.140740
-11.507640	17.861155	3.728881
-12.155244	17.423486	3.519286
-13.180314	17.503576	3.417473
-8.165056	13.761369	2.363731
-11.490342	17.847300	2.926132
-12.140347	17.421564	2.720940
-13.013213	17.300508	2.566849
-7.615807	12.835664	1.650896
-11.337504	17.622068	2.108863
-12.131338	17.422246	1.937293
-12.897214	17.163747	1.755670
-11.465547	17.826556	1.360244
-15.320162	20.414927	0.221408
-7.593328	12.830415	0.010148
-7.666952	11.939755	-0.127297
-12.058597	17.360391	-0.385932
-8.804299	11.747135	-0.409545
-6.992032	11.825706	-0.494150
-7.545039	11.761635	-0.632830
-8.101021	11.674094	-0.781252
-6.951243	11.770782	-0.991635
-10.285218	17.483702	6.200080
-11.245807	17.558763	6.127393
-12.133136	17.454552	6.018827
-12.099982	17.448411	4.323069
-13.038042	17.398400	4.213135
-11.372683	19.304506	4.158258
-11.509066	17.984313	3.747204
-12.109600	17.472047	3.521574
-13.047234	17.437921	3.396823
-8.125812	13.791468	2.364608
-11.527328	18.026015	2.949620
-12.085148	17.456283	2.720559
-12.922621	17.290239	2.559431
-7.937653	13.472116	1.729615
-8.631845	13.507512	1.613291
-12.066499	17.443002	1.935475
-12.814681	17.163302	1.751595
-11.494613	17.992841	1.370235
-15.173176	20.348802	0.220185
-7.507315	12.774334	0.010086
-12.000736	17.390721	-0.385786
-8.749113	11.748436	-0.408652
-6.949140	11.835898	-0.493683
-7.492278	11.758610	-0.631428
-8.061767	11.693960	-0.780923
-6.894412	11.756778	-0.988669
-10.225742	17.505266	6.196572
-11.153777	17.533278	6.106530
-12.086090	17.501196	6.022096
-12.021934	17.449948	4.314290
-12.907209	17.334376	4.188022
-11.451918	19.576081	4.209168
-11.528864	18.137575	3.771750
-12.026845	17.466863	3.513076
-12.947103	17.415224	3.384649
-8.076967	13.805232	2.362708
-11.490030	18.089727	2.954263
-12.024229	17.482652	2.718907
-12.897341	17.367275	2.564965
-7.516326	12.846979	1.646389
-8.537577	13.450766	1.603377
-11.974573	17.424130	1.929296
-12.742369	17.176120	1.748905
-11.463953	18.066782	1.373181
-12.793237	17.267352	0.186417
-11.926974	17.397769	-0.385128
-8.685677	11.738260	-0.407370
-6.902729	11.839895	-0.492964
-7.448155	11.768879	-0.630749
-8.021904	11.712871	-0.780538
-6.852288	11.767532	-0.987801
-10.145597	17.491058	6.180496
-11.074821	17.527672	6.092715
-12.016555	17.515183	6.014195
-11.952291	17.463297	4.308505
-12.894840	17.429139	4.201340
-7.670097	13.204160	2.834031
-11.490516	18.200344	3.777454
-11.962619	17.488206	3.509970
-12.812599	17.345190	3.363382
-11.704003	20.146148	3.441767
-11.515876	18.253919	2.975294
-11.900589	17.417088	2.703019
-12.769118	17.305279	2.550012
-7.383510	12.709265	1.625829
-8.495740	13.476054	1.603277
-11.912637	17.448449	1.927933
-12.630476	17.134906	1.740755
-11.434544	18.143237	1.376319
-12.732495	17.296052	0.186304
-8.039701	11.804933	-0.260775
-8.644886	11.758409	-0.407146
-6.846845	11.827286	-0.491562
-7.396064	11.766302	-0.629392
-7.973013	11.718440	-0.779276
-6.796183	11.753962	-0.984907
-10.085205	17.510498	6.176403
-11.006205	17.537998	6.084538
-11.931333	17.505852	5.998394
-12.841037	17.402609	5.901164
-11.896454	17.496643	4.307706
-12.753505	17.349176	4.172612
-7.594181	13.166308	2.820893
-11.483286	18.313115	3.793530
-11.893383	17.501979	3.505395
-12.731847	17.346979	3.356139
-7.986670	13.845106	2.361100
-11.459294	18.288324	2.975158
-11.866038	17.481420	2.707341
-12.698352	17.320347	2.546479
-7.355906	12.751659	1.628358
-10.956710	17.498448	2.077821
-11.838927	17.455244	1.924661
-12.572547	17.166339	1.740021
-8.157411	14.155355	1.205206
-11.450309	18.292428	1.384965
-12.655167	17.301940	0.185948
-6.909664	12.009058	0.009431
-7.995602	11.817949	-0.260519
-8.603464	11.777611	-0.406896
-6.806045	11.840438	-0.491239
-7.345647	11.766057	-0.628170
-7.929755	11.732091	-0.778562
-6.752145	11.760918	-0.983749
-10.039032	17.554640	6.181080
-10.941690	17.554585	6.078618
-11.865162	17.524051	5.992129
-12.749368	17.389794	5.883527
-11.833395	17.519254	4.304315
-12.646367	17.314492	4.154920
-7.562547	13.204902	2.824178
-11.404659	18.312308	3.786097
-11.815344	17.502407	3.498204
-12.661684	17.362806	3.351670
-7.960382	13.897871	2.365923
-8.376220	13.459529	2.185415
-11.774641	17.461820	2.698698
-12.668542	17.391331	2.551189
-7.366151	12.860414	1.639352
-10.881430	17.497338	2.073716
-11.739689	17.423760	1.917209
-12.507507	17.187906	1.738310
-8.096114	14.149152	1.202557
-11.374639	18.296114	1.382595
-12.577335	17.306710	0.185584
-6.838065	11.969420	0.009383
-7.940902	11.815040	-0.259917
-8.503877	11.716580	-0.403884
-6.762257	11.848245	-0.490699
-7.302144	11.776651	-0.627537
-7.872573	11.724863	-0.776476
-6.723934	11.795442	-0.984907
-9.942158	17.509680	6.154480
-10.873641	17.565229	6.070723
-11.780734	17.514862	5.976600
-12.726630	17.470935	5.897741
-11.746832	17.506654	4.292345
-12.590881	17.350031	4.154159
-7.525402	13.234024	2.825455
-11.731921	17.494328	3.489378
-12.593283	17.380768	3.347663
-7.901079	13.892990	2.360954
-8.332804	13.481793	2.184869
-11.686236	17.445944	2.690691
-12.563890	17.359324	2.540828
-7.384641	12.984903	1.652326
-8.270963	13.391143	1.584051
-8.879435	13.266290	1.456741
-12.385809	17.130893	1.728692
-8.052174	14.173058	1.202484
-12.487301	17.294142	0.185038
-6.778122	11.949462	0.009351
-7.800243	11.683018	-0.256485
-8.450351	11.718291	-0.403047
-6.716021	11.851546	-0.489980
-7.252884	11.777733	-0.626406
-7.818280	11.721548	-0.774664
-9.885105	17.534268	6.152434
-10.818194	17.596053	6.069877
-11.731755	17.558124	5.979052
-12.644689	17.470821	5.884580
-11.684915	17.530380	4.289352
-12.497400	17.332835	4.140842
-7.718241	13.670583	2.913591
-11.434889	18.614411	3.833979
-11.661237	17.504786	3.484312
-12.502379	17.367200	3.337646
-7.850150	13.902521	2.358470
-11.288933	18.390485	2.974748
-11.626063	17.471806	2.689166
-12.459555	17.326837	2.530466
-7.343793	13.005768	1.652106
-8.120588	13.238350	1.563022
-8.828768	13.278542	1.455105
-12.309354	17.135622	1.725350
-8.007184	14.195088	1.202263
-12.431853	17.329121	0.185003
-7.764364	11.706894	-0.256485
-8.406210	11.732784	-0.402657
-6.663948	11.844224	-0.488830
-7.205771	11.782032	-0.625456
-7.770150	11.727168	-0.773457
-9.811180	17.528628	6.139865
-10.694161	17.514522	6.030406
-11.638457	17.534710	5.958892
-12.475567	17.348966	5.830617
-11.624045	17.555525	4.286759
-12.450454	17.379874	4.142935
-10.290626	18.358134	3.905894
-11.416200	18.712467	3.846943
-11.586790	17.509215	3.478102
-12.466282	17.429583	3.342269
-7.813266	13.936894	2.360224
-8.145762	13.361807	2.157283
-8.788422	13.295622	2.042230
-12.403452	17.360942	2.529877
-7.327673	13.070719	1.657493
-8.085629	13.272548	1.564124
-8.744082	13.239087	1.447835
-12.251514	17.166004	1.724617
-8.059109	14.390132	1.216683
-11.092606	18.214221	1.368634
-12.324653	17.291450	0.184196
-7.766365	11.788270	-0.257744
-8.359160	11.743046	-0.402127
-6.607598	11.828842	-0.487356
-7.159219	11.787008	-0.624551
-7.725900	11.738441	-0.772633
-9.742491	17.531897	6.130512
-10.622468	17.517714	6.020256
-11.563422	17.538202	5.947994
-12.406580	17.365179	5.823246
-11.550746	17.561632	4.279576
-12.365765	17.373998	4.132471
-7.586880	13.632630	2.895525
-11.455201	18.906616	3.879613
-11.538979	17.553750	3.479899
-12.322322	17.340492	3.317921
-7.767104	13.954749	2.359201
-8.116018	13.405378	2.160287
-8.734524	13.302622	2.039180
-12.318517	17.354375	2.523401
-7.358596	13.220805	1.673654
-10.681343	17.655092	2.076720
-8.723636	13.296660	1.451198
-12.191873	17.193755	1.723639
-8.021707	14.426992	1.217713
-11.064046	18.293423	1.372028
-12.257098	17.308779	0.183979
-7.741113	11.828773	-0.258109
-8.295966	11.730278	-0.400816
-6.566914	11.841192	-0.487033
-7.116315	11.797796	-0.623963
-7.677284	11.742866	-0.771370
-9.681267	17.548306	6.125835
-10.565705	17.545289	6.018564
-11.506398	17.568766	5.946360
-12.351570	17.400801	5.822457
-11.518252	17.629799	4.287557
-12.295966	17.388608	4.126954
-10.179215	18.423510	3.906441
-11.487024	19.091051	3.910209
-11.505567	17.620458	3.486110
-12.260516	17.366108	3.315609
-10.221336	18.497457	3.121878
-8.098843	13.470118	2.166706
-11.509198	17.646195	2.699588
-12.252053	17.373421	2.520693
-7.402607	13.396430	1.693004
-10.696305	17.802916	2.090238
-8.694219	13.340882	1.453106
-10.244067	18.557718	1.563707
-11.009412	18.329848	1.372220
-12.188978	17.325037	0.183754
-8.235228	11.720505	-0.399617
-6.524289	11.849903	-0.486566
-7.055446	11.778438	-0.621792
-7.621643	11.736218	-0.769394
-9.578230	17.488178	6.094558
-10.504933	17.566094	6.014617
-11.419388	17.553174	5.929197
-12.280335	17.413385	5.814033
-11.484380	17.696290	4.295138
-12.227888	17.405365	4.122008
-7.518220	13.706512	2.901365
-11.400107	19.078853	3.900529
-11.508896	17.744238	3.503597
-12.189024	17.377756	3.310677
-7.282135	13.274456	2.236593
-8.038182	13.462580	2.161516
-11.494915	17.743023	2.708993
-12.191287	17.400355	2.519162
-7.368165	13.431278	1.694544
-8.000345	13.408778	1.571434
-8.641885	13.349937	1.451198
-12.138723	17.343362	1.731137
-10.020776	18.285583	1.538179
-10.940345	18.342112	1.370619
-12.126602	17.349238	0.183615
-8.190648	11.733420	-0.399199
-6.481672	11.858464	-0.486098
-7.010595	11.785432	-0.621022
-7.572070	11.738568	-0.768022
-9.500778	17.473792	6.079358
-10.393183	17.500898	5.981349
-11.359215	17.578429	5.925927
-12.273908	17.518137	5.836408
-11.445431	17.755323	4.300923
-12.142966	17.397715	4.111354
-7.028506	12.907468	2.727648
-11.386253	19.189127	3.915913
-11.513177	17.870691	3.521574
-12.142431	17.424798	3.312527
-11.199648	20.564980	3.459157
-7.999367	13.491438	2.162199
-8.580588	13.334071	2.031808
-9.169052	13.172597	1.903001
-7.331202	13.461676	1.695533
-7.951561	13.420420	1.569932
-8.630510	13.422457	1.456196
-12.123010	17.434528	1.736516
-9.958433	18.304850	1.537222
-12.065903	17.375682	0.183502
-7.154114	13.171510	0.010203
-7.070105	11.956503	-0.124614
-8.154612	11.758494	-0.399199
-6.435252	11.859847	-0.485343
-6.969324	11.798284	-0.620570
-7.524709	11.744089	-0.766869
-8.076130	11.653579	-0.915143
-9.447124	17.502858	6.079358
-10.353576	17.556667	5.989525
-11.239745	17.511168	5.891601
-12.128064	17.423480	5.792448
-11.433704	17.857199	4.317083
-12.103518	17.455057	4.116110
-6.979055	12.910808	2.723816
-11.476833	19.477698	3.967597
-11.481694	17.942492	3.528765
-12.093414	17.468466	3.313760
-7.639497	14.130814	2.372937
-8.095153	13.748964	2.199481
-11.517776	18.019651	2.740387
-9.141587	13.219451	1.905709
-7.215183	13.345959	1.678162
-10.327655	17.553299	2.049683
-8.530327	13.356549	1.446199
-12.026980	17.410135	1.730404
-7.764446	14.376925	1.205353
-12.006293	17.403564	0.183407
-7.213643	12.285114	-0.127808
-8.086739	11.737360	-0.397637
-6.386514	11.856659	-0.484409
-6.931578	11.817025	-0.620434
-7.484891	11.761223	-0.766484
-8.009215	11.633094	-0.911600
-6.840665	12.767383	4.427251
-10.253606	17.509696	5.962741
-11.176141	17.530154	5.886425
-12.111316	17.513769	5.810085
-11.491397	18.069137	4.359778
-12.049910	17.492108	4.116110
-6.931974	12.918296	2.720896
-11.472732	19.608030	3.986957
-11.549368	18.170796	3.566680
-12.017929	17.473738	3.307749
-11.062493	20.613264	3.455796
-8.095434	13.846427	2.211089
-11.538993	18.175486	2.758689
-9.099300	13.244980	1.905356
-7.229195	13.470498	1.691025
-7.867058	13.465520	1.569531
-8.476507	13.362476	1.444018
-11.963922	17.432983	1.729018
-7.717475	14.395404	1.204912
-11.909880	17.377629	0.182748
-7.042487	13.157851	0.010158
-6.957825	11.933143	-0.123924
-8.033189	11.736543	-0.396773
-6.342097	11.861215	-0.483798
-6.882722	11.816655	-0.619303
-7.441837	11.773158	-0.765771
-7.992643	11.685616	-0.913790
-6.779010	12.746093	4.412635
-10.190193	17.524485	5.957102
-11.123337	17.565986	5.886970
-12.042777	17.529375	5.802978
-11.502368	18.209523	4.385114
-11.951832	17.464178	4.100891
-7.465936	14.016420	2.947349
-11.494621	18.207813	3.567007
-11.956459	17.499104	3.305592
-10.994549	20.638375	3.454335
-10.681515	18.398976	2.932823
-11.486351	18.215836	2.759451
-9.028953	13.229362	1.899115
-7.355134	13.806661	1.730385
-7.827707	13.493035	1.569932
-8.440249	13.396001	1.444836
-11.903645	17.459724	1.728040
-7.579103	14.242055	1.190124
-11.839064	17.388462	0.182479
-6.884106	11.890395	-0.123260
-7.993771	11.756173	-0.396605
-6.289749	11.850603	-0.482576
-6.830932	11.810907	-0.617901
-7.393472	11.776485	-0.764508
-7.958436	11.712558	-0.913983
-9.236967	17.496885	6.047497
-10.134462	17.552341	5.955974
-11.032510	17.541387	5.867355
-11.988942	17.566239	5.802978
-11.523000	18.366744	4.414442
-11.878878	17.472348	4.094232
-6.813975	12.887574	2.705568
-11.454952	18.268902	3.572074
-11.852776	17.462128	3.291722
-7.498943	14.181288	2.369722
-7.955899	13.801431	2.196067
-8.281007	13.222321	1.999144
-8.972162	13.233164	1.895701
-7.170566	13.560293	1.696742
-7.790744	13.524746	1.570833
-8.342585	13.331504	1.435113
-11.813694	17.442521	1.722742
-7.515809	14.228204	1.187034
-11.772775	17.405653	0.182279
-6.819187	11.862045	-0.122748
-7.953750	11.774844	-0.396410
-6.247772	11.859235	-0.482144
-6.782227	11.810151	-0.616770
-7.330891	11.756748	-0.761763
-7.919674	11.732784	-0.913661
-9.165933	17.492104	6.036097
-10.039526	17.511769	5.931727
-10.942959	17.518028	5.848284
-11.936617	17.605334	5.803767
-11.505983	18.465216	4.429604
-11.810931	17.487558	4.089286
-6.763895	12.888395	2.701371
-11.791413	17.486939	3.289565
-10.830007	20.633620	3.442352
-7.883010	13.772470	2.187600
-8.250880	13.264510	2.001686
-11.748002	17.442255	2.493494
-7.251802	13.816328	1.725987
-7.759587	13.566721	1.572936
-10.930606	17.586933	1.889583
-11.747884	17.460491	1.720949
-7.575394	14.448159	1.203440
-11.678609	17.381098	0.181646
-6.765909	11.853383	-0.122443
-7.904220	11.779269	-0.395741
-6.194225	11.845580	-0.480814
-6.734086	11.810076	-0.615684
-7.289005	11.769846	-0.761159
-7.875304	11.744593	-0.912695
-9.107812	17.511659	6.033174
-9.997620	17.563333	5.938776
-10.865321	17.513090	5.835480
-11.857758	17.605065	5.791658
-7.570972	12.233630	2.929129
-11.753395	17.518004	4.087954
-6.706154	12.874206	2.694072
-11.374297	18.390027	3.582043
-11.730010	17.511540	3.287407
-7.723506	14.825384	2.469386
-7.497116	13.191982	2.091733
-8.218487	13.303263	2.003719
-11.675107	17.449329	2.489373
-7.108810	13.645465	1.701910
-7.719403	13.593059	1.573236
-10.826381	17.539032	1.880859
-11.684292	17.481535	1.719482
-7.533333	14.475755	1.203808
-11.620233	17.409360	0.181568
-7.847530	11.772689	-0.394709
-6.151409	11.852110	-0.480311
-6.690932	11.818510	-0.615051
-7.241876	11.774292	-0.760007
-7.833150	11.759563	-0.911987
-9.049658	17.531020	6.030251
-9.913004	17.539630	5.920449
-10.831227	17.578291	5.846105
-11.683518	17.461756	5.732694
-7.536483	12.261809	2.930326
-11.691973	17.542543	4.085291
-6.567736	12.703447	2.654110
-11.407155	18.570264	3.610316
-11.669114	17.536751	3.285404
-7.481697	14.469391	2.406256
-7.763304	13.758461	2.177767
-8.180747	13.333487	2.004482
-11.588537	17.435443	2.482308
-7.174195	13.874691	1.727746
-7.682550	13.625346	1.574238
-10.840705	17.683387	1.892764
-11.590361	17.456688	1.713532
-7.485226	14.491711	1.203220
-11.564557	17.441595	0.181533
-7.801441	11.781707	-0.394207
-6.109527	11.860266	-0.479880
-6.647789	11.826790	-0.614417
-7.189063	11.769187	-0.758250
-7.780515	11.758573	-0.910054
-8.964871	17.498272	6.009497
-9.856799	17.565777	5.919040
-10.730539	17.535111	5.820769
-11.627755	17.494305	5.731641
-7.828128	12.824343	3.059006
-11.625633	17.559505	4.080915
-6.524243	12.714789	2.652285
-7.519451	13.411912	2.698478
-11.422573	18.723925	3.633360
-11.578754	17.517243	3.275079
-7.510442	14.634859	2.429930
-7.308060	13.045008	2.061279
-8.170770	13.409343	2.012108
-11.526236	17.457656	2.480424
-7.217818	14.064651	1.748635
-7.665499	13.693129	1.579344
-11.537299	17.492996	1.713614
-7.452559	14.537681	1.205132
-11.509892	17.475323	0.181516
-6.167665	12.051443	0.009215
-7.974353	13.131830	-0.280508
-7.748230	11.779697	-0.393343
-6.060828	11.854929	-0.478909
-6.603684	11.833172	-0.613693
-7.147743	11.782651	-0.757701
-7.732893	11.764876	-0.908702
-8.912878	17.529104	6.010666
-9.760371	17.519663	5.893383
-10.676192	17.567128	5.820497
-11.544793	17.485616	5.717164
-7.762332	12.804726	3.048632
-11.558760	17.575402	4.076350
-6.467357	12.699700	2.644986
-7.281384	13.081210	2.627433
-11.477029	18.943668	3.669151
-11.540142	17.575810	3.279394
-7.483017	14.692211	2.435629
-7.226112	12.992048	2.049398
-8.198918	13.548910	2.029266
-11.497130	17.530303	2.485723
-7.171477	14.080529	1.747866
-7.648588	13.761805	1.584552
-11.508154	17.565825	1.717282
-7.382146	14.509811	1.200939
-11.496190	17.571637	0.182149
-6.091718	11.993632	0.009156
-7.943322	13.171645	-0.280837
-7.706039	11.794207	-0.393036
-6.016743	11.858317	-0.478298
-6.558151	11.836774	-0.612834
-7.097649	11.781432	-0.756219
-7.679304	11.761805	-0.906641
-8.848287	17.535020	6.003359
-9.694502	17.527696	5.886053
-10.603851	17.569319	5.810416
-11.505379	17.542734	5.724271
-7.694203	12.780628	3.037260
-11.521966	17.637082	4.082437
-6.552098	12.964306	2.695897
-7.139269	12.919003	2.590442
-11.425469	18.989780	3.671275
-11.517472	17.659133	3.288332
-7.442816	14.724811	2.437237
-7.186698	13.015024	2.049535
-8.301390	13.813752	2.065108
-11.548452	17.726911	2.508565
-7.195052	14.234636	1.764247
-7.605370	13.783463	1.584351
-10.546766	17.564700	1.869590
-11.485740	17.649501	1.722009
-7.330404	14.518148	1.199762
-11.495626	17.688993	0.182999
-6.052192	12.006906	0.009152
-7.906471	13.201957	-0.280965
-7.666009	11.811924	-0.392841
-5.971794	11.859761	-0.477615
-6.506399	11.828829	-0.611386
-7.054294	11.791156	-0.755450
-7.623636	11.755168	-0.904322
-8.776036	17.525314	5.990790
-9.636064	17.548946	5.883234
-10.511811	17.538223	5.789439
-11.430440	17.545617	5.713741
-7.656968	12.807538	3.038058
-11.520174	17.753056	4.101081
-6.659518	13.277888	2.756844
-7.093915	12.930483	2.588368
-11.418262	19.110279	3.687782
-11.520186	17.782285	3.304667
-7.378533	14.709553	2.430953
-7.687216	14.022952	2.204534
-8.313869	13.931144	2.078835
-11.525303	17.810614	2.515395
-7.021217	13.997222	1.732144
-7.569261	13.818076	1.585653
-10.580044	17.743239	1.885130
-11.505663	17.799327	1.733175
-7.283148	14.535219	1.199320
-10.287526	18.786635	1.374590
-11.485773	17.793069	0.183710
-7.842421	13.186622	-0.280125
-7.597780	11.785818	-0.391195
-5.930914	11.869087	-0.477256
-6.454278	11.819801	-0.609893
-7.008906	11.797291	-0.754462
-7.579429	11.765918	-0.903356
-8.709461	17.526465	5.982021
-9.552331	17.523672	5.864907
-10.441715	17.543105	5.780449
-11.368695	17.568452	5.709793
-7.441055	12.533534	2.967633
-11.510863	17.858455	4.117252
-7.077437	14.219839	2.947896
-7.049972	12.944401	2.586812
-8.457890	14.254768	2.745775
-11.485894	17.849118	3.310523
-7.317059	14.699353	2.425546
-7.540456	13.855912	2.174626
-7.975260	13.457404	2.004482
-11.501212	17.893504	2.522106
-7.296702	14.658458	1.811192
-7.533011	13.852597	1.586955
-11.484926	17.887380	1.738310
-9.051037	18.202672	1.499629
-10.247477	18.850550	1.376959
-11.486184	17.914086	0.184595
-7.550805	11.792235	-0.390638
-5.889588	11.877378	-0.476860
-6.419413	11.842181	-0.610029
-6.968113	11.810998	-0.753968
-7.532539	11.772305	-0.902067
-8.659033	17.559965	5.984359
-9.485282	17.528424	5.856731
-10.365813	17.537783	5.768190
-11.270925	17.535079	5.687681
-7.447853	12.633120	2.985788
-11.478253	17.928412	4.125242
-7.089943	14.355205	2.971436
-6.830344	12.633265	2.520435
-8.416622	14.284899	2.746592
-11.546018	18.064098	3.343810
-7.284195	14.746567	2.429638
-7.476251	13.838888	2.168345
-7.742265	13.156112	1.956057
-11.491148	17.999014	2.531997
-7.312442	14.803753	1.826365
-7.508437	13.908912	1.590760
-10.359420	17.618103	1.865046
-11.534498	18.086395	1.754203
-9.082083	18.406541	1.514122
-11.487572	18.037802	0.185506
-7.499034	11.790884	-0.389829
-5.851356	11.891805	-0.476716
-6.367904	11.833669	-0.608581
-6.924778	11.820259	-0.753199
-7.486752	11.780199	-0.900908
-8.552579	17.479071	5.947821
-9.421473	17.538848	5.850528
-10.298322	17.546267	5.760562
-11.229534	17.589090	5.693999
-7.371436	12.591640	2.970626
-11.477983	18.049698	4.145027
-6.801833	13.878943	2.868519
-6.794814	12.660235	2.521645
-8.140595	13.913845	2.670434
-11.512785	18.134469	3.350283
-7.464455	15.228984	2.505336
-7.422523	13.840807	2.165067
-7.893037	13.506943	2.004609
-11.468846	18.086179	2.539297
-7.026829	14.336139	1.766006
-7.469489	13.938898	1.591561
-7.863436	13.467617	1.423117
-11.504022	18.161270	1.758033
-7.189845	14.684935	1.206162
-10.266864	19.165539	1.395340
-11.498464	18.177751	0.186582
-6.892550	11.836081	-0.250077
-7.455885	11.802850	-0.389466
-5.809145	11.898026	-0.476249
-6.319331	11.830240	-0.607405
-6.873420	11.815557	-0.751552
-7.435128	11.778640	-0.899040
-8.497661	17.502647	5.946944
-9.370780	17.573595	5.852502
-10.227486	17.548685	5.751026
-11.149687	17.582722	5.680837
-7.445052	12.807349	3.016113
-11.484416	18.182772	4.167476
-6.641838	13.658357	2.818703
-6.741584	12.654074	2.516286
-8.085480	13.917429	2.666349
-11.491351	18.224030	3.360300
-7.389141	15.193097	2.495691
-7.399576	13.900241	2.170803
-7.485666	12.900524	1.911191
-11.485280	18.235556	2.555310
-7.227557	14.860857	1.827904
-7.422018	13.952965	1.590560
-7.823580	13.494263	1.423390
-11.463110	18.220098	1.760315
-8.454304	17.402521	1.427237
-10.220667	19.220737	1.397069
-11.476156	18.266285	0.187128
-6.855704	11.856306	-0.250059
-7.415389	11.818895	-0.389243
-5.765208	11.900503	-0.475638
-6.266628	11.818682	-0.605821
-6.827648	11.820161	-0.750509
-7.390475	11.787867	-0.898010
-8.406985	17.451955	5.920929
-9.287198	17.546296	5.833894
-10.138418	17.519187	5.731139
-11.066386	17.570317	5.665833
-7.447363	12.902266	3.033071
-11.514660	18.355141	4.198866
-6.721673	13.931043	2.870709
-6.820605	12.897595	2.560538
-11.476293	18.324515	3.372320
-6.901808	14.302468	2.345902
-7.342085	13.894850	2.166433
-7.522806	13.056642	1.930892
-8.434242	13.482877	1.885692
-6.946507	14.395098	1.767985
-7.368026	13.954553	1.588156
-10.121805	17.582380	1.851324
-11.419834	18.275466	1.762272
-7.091377	14.711706	1.204765
-10.271587	19.460286	1.412184
-7.450858	11.940496	0.122089
-6.812826	11.866011	-0.249821
-7.370107	11.827166	-0.388769
-5.724775	11.910028	-0.475314
-6.221964	11.821940	-0.605007
-6.771482	11.806406	-0.748313
-7.341616	11.790155	-0.896464
-8.344331	17.458682	5.914498
-6.747840	12.843839	4.263490
-10.072159	17.528518	5.724056
-10.993498	17.573923	5.656093
-10.542746	18.395013	4.316684
-6.434365	13.440786	2.765603
-7.007602	13.350151	2.646102
-6.375583	13.316205	2.180916
-7.930714	15.120949	2.353797
-7.599446	13.283708	1.961014
-8.465681	13.625936	1.902059
-6.884713	14.379586	1.763477
-7.321023	13.969161	1.587255
-10.031244	17.549370	1.844599
-6.918847	14.467083	1.182988
-10.258147	19.580105	1.418589
-7.455804	12.030446	0.122774
-6.748660	11.838215	-0.248799
-7.305379	11.803823	-0.387263
-5.684767	11.920319	-0.475027
-6.180578	11.831233	-0.604509
-6.730781	11.819316	-0.747819
-7.289663	11.787161	-0.894531
-8.314494	17.534318	5.931452
-9.152301	17.551056	5.816696
-10.000215	17.527579	5.713703
-10.447490	18.359139	4.300724
-11.445729	18.496408	4.215037
-6.335732	13.339677	2.740786
-7.222830	13.863369	2.743421
-11.388046	18.434094	3.379563
-6.562636	13.815552	2.259391
-7.862787	15.103910	2.347378
-7.654187	13.475141	1.985798
-8.373777	13.570713	1.890755
-6.746741	14.203125	1.739290
-7.291447	14.017153	1.590159
-8.280952	17.452566	1.425030
-9.492224	18.254175	1.320408
-7.404184	12.029419	0.122531
-5.731306	12.100304	0.009114
-6.694579	11.827539	-0.248142
-7.249241	11.793818	-0.386204
-5.643040	11.926863	-0.474596
-6.139193	11.840384	-0.604012
-6.684660	11.822526	-0.746721
-7.237798	11.783960	-0.892599
-8.230943	17.496574	5.910114
-9.056957	17.498960	5.790193
-9.945920	17.557340	5.713431
-11.415144	18.574091	4.224739
-6.275079	13.317250	2.732210
-7.178454	13.881964	2.742730
-11.378458	18.545585	3.393587
-6.577152	13.956428	2.279119
-7.241629	14.015522	2.174763
-7.604039	13.483008	1.983511
-8.258423	13.476109	1.874035
-8.208162	17.417358	2.129806
-7.253886	14.050067	1.591361
-9.902841	17.574152	1.840783
-11.258432	18.391697	1.763413
-6.623521	14.070738	1.147234
-9.438465	18.287645	1.320728
-7.358378	12.037574	0.122384
-5.696282	12.122356	0.009117
-6.662669	11.855867	-0.248306
-7.196357	11.788701	-0.385311
-5.591560	11.912457	-0.473337
-6.095981	11.845839	-0.603333
-6.633694	11.816859	-0.745074
-7.199013	11.801851	-0.892277
-8.173182	17.513077	5.907191
-9.008489	17.536904	5.793577
-9.861821	17.534098	5.695996
-10.357655	18.463920	4.310300
-11.402092	18.681092	4.241100
-8.140715	17.414950	3.567766
-7.262205	14.150156	2.791302
-7.764427	13.849636	2.630231
-11.448496	18.788815	3.431651
-8.157405	17.448273	2.845245
-7.195431	14.031502	2.173807
-7.434220	13.276929	1.949829
-8.177286	13.436063	1.864969
-6.452357	13.801260	1.685198
-7.041504	13.741966	1.554010
-9.860061	17.624440	1.842873
-6.598888	14.130751	1.150471
-7.312590	12.045562	0.122237
-5.656530	12.134337	0.009113
-6.095548	11.921492	-0.120120
-6.608727	11.844819	-0.247649
-7.146164	11.787645	-0.384558
-5.547394	11.913248	-0.472690
-6.078694	11.901851	-0.605233
-6.587687	11.819711	-0.743976
-7.147259	11.798275	-0.890345
-8.125440	17.551088	5.911575
-8.925012	17.506336	5.774405
-9.783587	17.520588	5.681829
-8.071277	17.418941	5.065175
-7.011137	12.588657	2.933717
-11.399686	18.806657	4.261647
-6.236265	13.448268	2.751187
-7.214288	14.163593	2.789574
-7.722380	13.874253	2.630394
-11.464971	18.946421	3.453997
-6.534681	14.089857	2.294317
-7.150552	14.049980	2.173261
-7.343330	13.209512	1.936611
-8.104179	13.408396	1.857669
-6.409567	13.820089	1.685088
-7.374105	14.500502	1.637223
-9.795305	17.635453	1.840873
-11.136614	18.445928	1.762027
-6.486336	14.001621	1.138332
-7.263726	12.048243	0.122037
-5.618436	12.149818	0.009112
-6.039940	11.902685	-0.119743
-6.568965	11.858917	-0.247521
-7.102232	11.796667	-0.384140
-5.504951	11.917510	-0.472187
-6.050281	11.936483	-0.606048
-6.540275	11.819773	-0.742714
-7.094568	11.792784	-0.888284
-8.031646	17.489027	5.882345
-8.853935	17.499392	5.763127
-9.716726	17.526958	5.674201
-6.975801	12.616111	2.935114
-11.458894	19.035837	4.305593
-6.201551	13.481628	2.754107
-10.502927	20.777447	4.085832
-7.683118	13.903925	2.631538
-11.451576	19.056035	3.467558
-6.221429	13.522977	2.198891
-7.102054	14.061241	2.171622
-7.520361	13.626238	1.994314
-8.059427	13.427235	1.856845
-6.280729	13.651872	1.662220
-7.131887	14.131335	1.593063
-9.734903	17.654085	1.839692
-6.439185	14.012393	1.137596
-7.210291	12.043017	0.121759
-5.577382	12.158818	0.009105
-6.020485	11.955097	-0.120084
-6.531588	11.877262	-0.247485
-7.057287	11.803815	-0.383666
-5.463784	11.924350	-0.471792
-6.042811	12.012997	-0.608988
-6.491001	11.816154	-0.741231
-7.052213	11.804214	-0.887511
-7.985880	17.530991	5.888191
-8.805803	17.537619	5.766793
-6.870927	12.483893	4.034709
-10.575313	17.618620	5.606869
-6.934234	12.632298	2.933917
-11.421595	19.106293	4.313583
-6.153631	13.486279	2.751187
-10.451498	20.834223	4.090672
-7.694043	14.025169	2.650006
-11.433060	19.158105	3.479733
-6.100235	13.367404	2.170541
-7.083740	14.132558	2.179270
-7.562405	13.802344	2.016684
-7.983113	13.393041	1.848720
-6.304015	13.813945	1.679591
-6.992256	13.960988	1.571434
-7.705726	14.076164	1.464374
-6.457798	14.167293	1.148558
-7.160023	12.042733	0.121534
-5.537982	12.171321	0.009102
-6.489848	11.887591	-0.247284
-7.014406	11.814237	-0.383303
-5.424280	11.934687	-0.471540
-6.001912	12.023435	-0.608581
-6.452329	11.831629	-0.740957
-7.009345	11.814637	-0.886673
-7.923002	17.535366	5.881468
-8.756663	17.573998	5.769894
-6.814602	12.471984	4.024084
-7.090034	13.010592	3.016711
-11.378459	19.167415	4.319481
-6.034795	13.334008	2.716334
-6.826844	13.713579	2.688452
-7.650979	14.048709	2.650006
-8.399199	14.172968	2.569578
-7.887194	17.424494	2.825371
-7.062849	14.199459	2.186234
-7.543248	13.868176	2.022911
-7.694636	12.999589	1.791143
-6.272671	13.857669	1.682560
-6.812556	13.707058	1.540492
-7.864600	14.471613	1.502997
-6.334186	14.009837	1.134212
-7.107282	12.037950	0.121265
-5.497736	12.181874	0.009097
-6.450489	11.902172	-0.247174
-6.975082	11.830535	-0.383136
-5.383122	11.941251	-0.471145
-5.959232	12.030155	-0.607993
-6.403640	11.828539	-0.739530
-6.966480	11.824908	-0.885836
-7.829276	17.470574	5.851653
-8.666985	17.528537	5.746211
-6.784564	12.508056	4.028988
-7.043557	13.020217	3.013918
-11.477143	19.469483	4.379597
-5.734149	12.773907	2.598638
-6.774270	13.713265	2.684304
-7.527611	13.923714	2.622059
-8.289529	14.086265	2.549235
-6.236895	13.891924	2.249453
-7.144212	14.474231	2.225155
-7.473803	13.841504	2.015667
-7.919402	13.473448	1.853077
-6.549286	14.587738	1.768755
-6.760349	13.707369	1.538189
-7.874541	14.596466	1.513447
-10.737844	18.288977	1.734316
-6.332798	14.122023	1.141716
-7.064754	12.050209	0.121170
-5.460336	12.198683	0.009097
-6.407785	11.910460	-0.246937
-6.934713	11.844978	-0.382913
-5.343606	11.951324	-0.470893
-5.936397	12.077069	-0.609441
-6.363539	11.841093	-0.739090
-6.923619	11.835028	-0.884999
-7.777970	17.499756	5.853406
-6.698754	13.653158	4.469024
-9.481753	17.609296	5.662759
-7.761869	17.447938	5.038388
-6.892315	12.834574	2.966037
-7.557843	12.911282	2.899122
-5.683335	12.765391	2.593346
-6.681444	13.630507	2.664079
-7.475062	13.928488	2.618627
-8.127630	13.908598	2.512558
-7.758401	17.423760	2.817479
-7.270143	14.843937	2.278551
-7.442080	13.884476	2.018590
-7.511108	12.869025	1.766769
-7.461902	16.757884	2.029099
-6.753252	13.799540	1.546199
-7.750268	14.472190	1.498090
-7.855523	13.474242	1.275450
-6.361986	14.304495	1.154885
-7.007124	12.036394	0.120814
-5.417205	12.202582	0.009088
-6.355200	11.900076	-0.246316
-6.892312	11.855827	-0.382578
-5.240477	11.817837	-0.464998
-5.880486	12.056617	-0.607495
-6.315902	11.839417	-0.737773
-6.862715	11.813931	-0.881843
-7.713059	17.498159	5.844930
-8.527771	17.516688	5.725065
-7.732111	17.525631	5.053950
-6.813265	12.781295	2.948880
-7.561612	13.009101	2.915864
-5.648910	12.793560	2.595535
-8.486463	17.448086	3.405119
-10.969163	20.590505	3.864775
-8.052193	13.877064	2.502387
-7.692520	17.419427	2.812949
-8.472901	17.434896	2.672261
-7.378483	13.867837	2.012871
-7.470098	12.889431	1.766416
-7.365484	16.678866	2.016785
-7.112033	14.646309	1.638625
-7.519321	14.145043	1.461830
-7.913017	13.669067	1.291588
-6.274603	14.225399	1.146939
-8.445137	17.397844	1.241121
-6.946143	12.016281	0.120398
-5.809799	11.991145	-0.119537
-6.315383	11.913333	-0.246189
-6.849410	11.865662	-0.382216
-5.202989	11.831115	-0.464890
-5.828239	12.043129	-0.605912
-6.267868	11.836678	-0.736400
-6.820954	11.825422	-0.881134
-7.655508	17.512976	5.842007
-8.459802	17.513396	5.715480
-6.808951	12.833456	4.113442
-6.614993	12.501594	2.879652
-11.523698	19.966269	4.467300
-5.856120	13.373737	2.709583
-8.422620	17.452750	3.400971
-7.441570	14.072643	2.637095
-8.018459	13.917112	2.505161
-6.096471	13.920647	2.244923
-6.543428	13.570317	2.076847
-7.381297	13.976363	2.025326
-7.434976	12.920034	1.767476
-7.357342	16.799713	2.028659
-7.064475	14.662682	1.638024
-7.140809	13.533011	1.396308
-8.099520	14.090762	1.329080
-7.661367	17.514715	1.410243
-8.371368	17.381412	1.238111
-6.885351	11.995906	0.119981
-5.786847	12.037753	-0.119824
-6.261577	11.899915	-0.245513
-6.799553	11.863204	-0.381463
-5.169463	11.853433	-0.465142
-5.779588	12.036638	-0.604690
-6.216194	11.826685	-0.734589
-6.766787	11.815118	-0.878815
-7.583867	17.495142	5.828268
-6.330648	13.208958	4.304372
-6.771789	12.858541	4.114804
-6.672746	12.704876	2.921747
-5.578528	12.846920	2.599367
-6.128219	12.798621	2.490358
-10.824275	20.622481	3.858238
-10.497086	18.349013	3.297116
-6.512828	14.996392	2.415170
-6.500054	13.586754	2.076301
-7.310291	13.945355	2.017573
-7.385942	12.926402	1.765239
-7.302203	16.814001	2.027669
-6.680027	13.974220	1.558817
-7.071071	13.501042	1.390765
-8.064157	14.129394	1.330384
-7.618312	17.562841	1.412229
-8.314561	17.399810	1.237598
-6.850496	12.020449	0.120016
-5.749888	12.055450	-0.119824
-6.229205	11.927045	-0.245678
-6.747798	11.857077	-0.380598
-5.160841	11.933446	-0.467658
-5.746071	12.061528	-0.605052
-6.171106	11.828881	-0.733546
-6.727054	11.829750	-0.878364
-7.517317	17.488454	5.818330
-6.288858	13.225718	4.303526
-6.768412	12.948325	4.136871
-6.633284	12.724419	2.921548
-10.494505	18.443538	4.112115
-5.550364	12.890163	2.604659
-6.094419	12.828927	2.492605
-10.743178	20.621469	3.851865
-6.461702	15.004491	2.413270
-6.458340	13.606633	2.076301
-7.203836	13.845409	1.999906
-7.307049	12.879902	1.755819
-6.159242	14.302158	1.722469
-6.608984	13.935315	1.552208
-7.506404	14.439853	1.485094
-10.423120	18.393438	1.728855
-7.576215	17.613614	1.414436
-6.798812	12.015300	0.119756
-5.365284	12.496945	0.009257
-5.706032	12.058572	-0.119680
-6.186142	11.933672	-0.245422
-6.704505	11.865539	-0.380208
-5.143111	11.993309	-0.469383
-5.726114	12.115227	-0.606862
-6.139837	11.857511	-0.734150
-6.682388	11.835560	-0.877270
-7.456128	17.493839	5.812484
-6.244568	13.237140	4.300988
-6.751254	13.012587	4.150765
-7.617006	17.854879	5.121553
-6.704989	12.958804	2.970626
-7.490737	13.259044	2.951058
-5.558278	13.018352	2.627104
-5.974409	12.676501	2.459416
-7.493440	14.491947	2.702630
-7.860908	13.938686	2.495915
-6.433121	15.065184	2.419847
-6.411078	13.614731	2.074526
-7.232324	14.004929	2.019734
-7.260190	12.889281	1.754053
-7.187577	16.831982	2.024481
-6.649225	14.131983	1.571834
-7.272571	14.095535	1.447381
-7.990993	14.202930	1.332666
-7.518621	17.628518	1.413774
-6.757510	12.028256	0.119678
-5.315952	12.487584	0.009238
-5.666461	12.070589	-0.119627
-6.141725	11.937481	-0.245112
-6.656822	11.866001	-0.379567
-5.115677	12.031103	-0.470246
-5.647356	12.044098	-0.602428
-6.134921	11.937569	-0.737938
-6.636775	11.839467	-0.876046
-7.397583	17.505181	5.808684
-8.179587	17.477724	5.670651
-6.700287	13.011853	4.143954
-7.559178	17.871039	5.119513
-6.674153	12.996748	2.974616
-7.540315	13.442936	2.986824
-5.708427	13.484432	2.717612
-5.922558	12.667111	2.454058
-7.304353	14.233119	2.650169
-7.798799	13.928252	2.489750
-6.489854	15.328080	2.458865
-6.177248	13.223269	2.011980
-7.531349	14.694377	2.115821
-7.226428	12.921894	1.755466
-6.000840	14.173100	1.702459
-8.124208	17.405267	1.933125
-7.046824	13.761446	1.410849
-7.958075	14.246522	1.334459
-7.456733	17.633132	1.412302
-8.098366	17.356225	1.229144
-6.723498	12.054171	0.119730
-5.405940	12.807862	0.009463
-5.628558	12.086104	-0.119609
-6.097797	11.942020	-0.244820
-6.602389	11.854057	-0.378535
-5.109411	12.119489	-0.473086
-5.532434	11.893798	-0.594059
-6.115508	11.990135	-0.740024
-6.589744	11.840588	-0.874629
-7.337191	17.511917	5.803422
-8.146936	17.547989	5.685312
-6.690987	13.092322	4.163024
-7.506185	17.898605	5.120788
-7.413061	13.311619	2.952580
-5.837882	13.908942	2.799543
-5.913922	12.750449	2.466676
-7.291098	14.315241	2.661282
-10.221196	18.386632	3.281089
-6.481471	15.440047	2.473624
-6.121240	13.208902	2.006927
-7.677356	15.093150	2.169838
-7.314009	13.173209	1.786551
-6.067743	14.454469	1.734013
-6.544411	14.133692	1.567528
-7.040666	13.854024	1.418119
-7.911429	14.265641	1.333970
-7.395274	17.638451	1.410905
-8.026216	17.340234	1.226262
-6.656936	12.021380	0.119201
-5.386694	12.872356	0.009498
-5.581387	12.081530	-0.119393
-6.058419	11.955321	-0.244710
-6.558734	11.861135	-0.378116
-5.108433	12.221781	-0.476465
-5.492569	11.903459	-0.593697
-6.039462	11.931336	-0.735248
-6.548078	11.851142	-0.873920
-7.283431	17.534344	5.803422
-8.051723	17.483141	5.656272
-6.871887	13.548708	4.301419
-9.767361	17.591766	5.490256
-7.436018	17.884943	5.110329
-7.454364	13.482935	2.985493
-5.559478	13.360346	2.685679
-5.772677	12.546626	2.423807
-7.217772	14.279432	2.650496
-11.363540	20.590060	3.668051
-6.372875	15.312813	2.450097
-8.005520	17.414806	2.642217
-7.103567	14.071787	2.019861
-7.310951	13.263421	1.795735
-7.007532	16.837774	2.017335
-6.342791	13.809219	1.529377
-6.929964	13.740405	1.404306
-7.334618	17.645402	1.409654
-7.232139	17.432329	0.012846
-5.541379	12.092233	-0.119331
-6.014974	11.960453	-0.244436
-6.515579	11.868933	-0.377726
-5.088893	12.280787	-0.478154
-5.452282	11.912079	-0.593290
-5.961145	11.866829	-0.730142
-6.503530	11.856301	-0.872825
-7.221227	17.536268	5.796699
-7.974127	17.455399	5.639356
-6.882632	13.673719	4.334383
-7.357899	17.851354	5.094257
-6.986410	12.728599	2.813703
-5.513963	13.366433	2.683489
-5.731704	12.558902	2.422770
-7.140754	14.235371	2.638239
-11.269932	20.569369	3.658188
-6.331525	15.346011	2.452289
-6.258729	13.725729	2.079579
-7.381126	14.733805	2.111627
-7.309315	13.357222	1.805390
-6.953567	16.853682	2.016675
-6.295033	13.816843	1.528075
-6.877970	13.742009	1.402306
-7.870116	14.398748	1.341876
-7.268289	17.638314	1.407300
-6.544246	11.990902	0.118498
-7.096464	17.254671	0.012699
-5.503427	12.107356	-0.119313
-5.976466	11.975272	-0.244363
-6.468612	11.869556	-0.377112
-5.070559	12.343487	-0.479987
-5.412820	11.922383	-0.592973
-5.879718	11.794807	-0.724597
-6.458534	11.860423	-0.871666
-7.156188	17.530894	5.787638
-7.919746	17.478034	5.638792
-8.747947	17.513124	5.542889
-7.300538	17.867577	5.092471
-7.012149	12.868939	2.839956
-5.415617	13.243138	2.655387
-5.702083	12.596168	2.426573
-7.079901	14.222767	2.631865
-11.202996	20.596903	3.656956
-6.261196	15.308593	2.443228
-6.309667	13.950660	2.110715
-7.249345	14.582295	2.086715
-7.402926	13.627402	1.838830
-6.902956	16.877695	2.017005
-6.599662	14.604057	1.612890
-6.849068	13.789803	1.405033
-7.846343	14.460495	1.345381
-7.206599	17.642065	1.405828
-6.548393	12.086535	0.119244
-7.072186	17.346738	0.012751
-5.463379	12.117802	-0.119250
-5.929937	11.973840	-0.243962
-6.425031	11.876158	-0.376694
-5.103522	12.532990	-0.486745
-5.371705	11.928913	-0.592475
-5.846161	11.818160	-0.724927
-6.405507	11.849456	-0.869411
-7.070087	17.472980	5.761331
-7.870413	17.511876	5.641893
-6.732368	13.582071	4.292156
-7.259155	13.362626	4.149346
-7.245686	17.889891	5.092471
-7.042230	13.019054	2.868303
-5.340612	13.174949	2.638417
-5.652116	12.588443	2.421733
-7.021814	14.215232	2.626472
-7.985133	14.788720	2.621358
-6.242076	15.396489	2.454188
-7.815301	17.421766	2.632248
-7.097061	14.386530	2.055576
-7.467607	13.847585	1.865440
-6.826870	16.838922	2.009859
-7.799295	17.400725	1.919106
-6.853396	13.905437	1.414665
-7.801942	14.484499	1.345381
-7.144205	17.643756	1.404210
-5.421686	12.124465	-0.119151
-5.879062	11.963261	-0.243377
-6.381472	11.882604	-0.376276
-5.123773	12.694081	-0.492389
-5.333861	11.942601	-0.592340
-5.801076	11.818114	-0.723829
-6.357327	11.847069	-0.867801
-7.030331	17.529206	5.772730
-7.806103	17.512277	5.634281
-6.703831	13.629426	4.300602
-7.178880	17.882425	5.084053
-6.864783	12.784577	2.811991
-5.256179	13.081794	2.616520
-5.846661	13.129388	2.522336
-6.866144	14.008155	2.584307
-7.933656	14.801828	2.619354
-6.994522	17.405620	2.771008
-7.757787	17.436610	2.630883
-7.203778	14.716482	2.099552
-7.335573	13.703212	1.842951
-6.111038	15.207101	1.812842
-7.751128	17.436391	1.920408
-6.828203	13.962182	1.418300
-7.757938	14.509245	1.345462
-7.082241	17.646153	1.402665
-7.754018	17.449454	1.225430
-5.383652	12.139213	-0.119133
-5.837073	11.970457	-0.243158
-6.332290	11.878309	-0.375523
-5.128607	12.819228	-0.496630
-5.293959	11.951601	-0.591978
-5.755172	11.816107	-0.722621
-6.311098	11.848021	-0.866449
-6.958856	17.506258	5.758115
-7.742254	17.513330	5.626950
-7.128988	17.916943	5.087624
-6.706390	12.582059	2.762908
-5.240028	13.158145	2.628563
-5.762583	13.048155	2.503322
-6.797677	13.976809	2.574665
-7.841334	14.737998	2.603789
-6.939626	17.423321	2.770424
-5.997442	13.592140	2.048033
-6.840945	14.084519	2.006388
-7.255754	13.654621	1.833413
-6.693262	16.804775	2.000843
-6.570934	14.904532	1.639326
-8.439606	17.392149	1.764083
-7.708715	14.524174	1.344647
-7.019591	17.646486	1.400973
-5.341151	12.143773	-0.119017
-5.799014	11.985609	-0.243104
-6.289740	11.886195	-0.375160
-5.134562	12.949168	-0.501052
-5.253651	11.959556	-0.591571
-5.722370	11.840900	-0.723060
-6.269122	11.856741	-0.865676
-6.893197	17.497272	5.748176
-8.454374	17.458084	5.492217
-7.064763	17.915343	5.080991
-6.676021	12.618195	2.766332
-5.436425	13.774107	2.748268
-5.615835	12.822177	2.456650
-6.686163	13.855437	2.548516
-10.900026	20.639345	3.640466
-5.639892	14.287436	2.269036
-5.985102	13.677634	2.058138
-6.766698	14.041105	1.997237
-7.111442	13.482701	1.807392
-6.636930	16.813212	1.999414
-6.464194	14.785139	1.624005
-8.378432	17.401808	1.762448
-7.640892	14.503666	1.340572
-6.948594	17.625260	1.397589
-6.309268	11.994296	0.117561
-5.297873	12.146354	-0.118882
-5.757023	11.992527	-0.242884
-6.234651	11.870037	-0.374045
-5.123320	13.037409	-0.503856
-5.214143	11.969207	-0.591254
-5.696808	11.880908	-0.724433
-6.213239	11.838807	-0.862970
-6.827658	17.488050	5.738238
-8.404941	17.492613	5.494941
-7.001320	17.915320	5.074869
-7.753822	17.834618	4.920187
-6.681554	12.722926	2.784786
-5.482247	14.015973	2.793157
-5.569800	12.823987	2.453712
-6.132378	12.808098	2.352401
-10.824268	20.649061	3.636305
-5.545215	14.174771	2.248430
-5.956124	13.725921	2.062645
-6.574261	13.749494	1.952880
-7.248752	13.845805	1.853077
-6.586041	16.835345	1.999634
-6.150858	14.186889	1.556213
-8.324575	17.426531	1.762357
-7.667483	14.663055	1.353123
-6.883963	17.619558	1.395455
-7.590311	17.513672	1.224982
-6.279845	12.027778	0.117700
-5.252247	12.143277	-0.118694
-5.711175	11.991177	-0.242501
-6.186652	11.866949	-0.373348
-5.109046	13.119183	-0.506408
-5.177001	11.984230	-0.591209
-5.647034	11.870378	-0.722731
-6.197174	11.896755	-0.865804
-6.759826	17.472345	5.726254
-6.341887	13.303324	4.172832
-6.937594	17.914174	5.068491
-7.701756	17.864554	4.921904
-6.692405	12.839127	2.805712
-5.325866	13.740282	2.734947
-5.525366	12.829254	2.451465
-6.047761	12.731502	2.334914
-10.688811	20.543683	3.611956
-6.755729	17.426499	2.760925
-5.871307	13.644943	2.047760
-6.813055	14.361964	2.036892
-7.060173	13.586884	1.815516
-6.530767	16.846206	1.998534
-6.162322	14.333664	1.570232
-6.754446	14.251903	1.439202
-7.371776	14.203505	1.308622
-6.824474	17.626643	1.394352
-7.555458	17.580886	1.228056
-6.240615	12.042549	0.117657
-5.661972	11.982427	-0.241972
-6.141947	11.869893	-0.372846
-5.144143	12.009239	-0.591661
-5.616130	11.899386	-0.723445
-6.147356	11.890004	-0.863937
-6.689758	17.450140	5.712223
-8.274412	17.495146	5.479685
-6.865627	17.891139	5.055991
-7.644626	17.882750	4.920432
-6.607421	12.771531	2.786498
-5.282629	13.753804	2.734400
-5.466252	12.799950	2.442649
-5.951896	12.629519	2.312851
-7.230105	14.000858	2.457696
-6.691591	17.419440	2.756541
-5.829806	13.663803	2.047896
-6.509201	13.830857	1.958726
-7.032567	13.635840	1.819166
-6.451252	16.793791	1.989959
-5.934936	13.922320	1.523168
-6.904336	14.684414	1.480732
-7.705619	14.958799	1.376026
-6.763934	17.630737	1.393027
-7.512047	17.628771	1.229785
-6.187174	12.029626	0.117344
-5.622213	11.993404	-0.241844
-6.101392	11.880678	-0.372595
-6.656417	17.407698	-0.670358
-5.122505	12.060824	-0.593425
-5.629982	12.024169	-0.729977
-6.060733	11.811144	-0.856851
-6.632115	17.459854	5.708715
-8.244404	17.570971	5.495486
-6.638195	17.458419	4.927926
-7.585943	17.897195	4.917980
-6.625607	12.903529	2.810849
-5.227818	13.736865	2.727830
-5.444238	12.857474	2.450427
-5.913957	12.649508	2.313178
-7.426417	14.489879	2.539527
-5.502145	14.455422	2.284818
-6.469078	15.291924	2.288929
-6.365190	13.633262	1.927968
-7.329149	14.318562	1.907240
-6.394041	16.798642	1.988200
-5.893357	13.943213	1.523469
-6.677815	14.316545	1.441565
-7.417418	14.508485	1.332503
-6.702370	17.631830	1.391482
-7.448218	17.628754	1.228184
-6.180244	12.107333	0.117917
-5.584127	12.007876	-0.241789
-6.054927	11.879748	-0.371981
-6.621391	17.476632	-0.672227
-5.094008	12.096737	-0.594421
-5.614938	12.088475	-0.732832
-6.013600	11.808340	-0.855306
-6.564707	17.443423	5.696731
-7.374345	17.547617	5.593400
-8.155946	17.522036	5.472329
-6.582557	17.473274	4.926395
-7.524239	17.904296	4.913565
-6.482574	12.720864	2.766712
-5.277229	13.995714	2.776004
-5.894307	14.040198	2.672377
-5.851046	12.615683	2.303699
-7.411045	14.569838	2.549544
-5.456724	14.469458	2.284380
-6.419067	15.304391	2.287837
-6.495080	14.023544	1.980333
-7.245607	14.263069	1.896878
-6.325288	16.772609	1.982813
-5.876702	14.023628	1.530278
-6.598733	14.261045	1.433931
-7.350775	14.487621	1.328509
-6.641566	17.634576	1.390085
-7.391014	17.644157	1.227671
-5.544748	12.019504	-0.241680
-6.010331	11.882213	-0.371479
-6.550182	17.450084	-0.670430
-5.073037	12.151027	-0.596321
-5.485481	11.905229	-0.720700
-5.979595	11.831188	-0.855628
-6.513165	17.468857	5.698485
-7.321951	17.573701	5.594527
-8.071899	17.481459	5.451897
-6.735416	13.258625	4.057741
-6.512691	17.449903	4.914150
-7.462563	17.911186	4.909150
-6.447947	12.749454	2.768615
-5.114531	13.691316	2.712502
-5.870507	14.104590	2.681192
-5.794171	12.594139	2.296508
-7.291953	14.445205	2.523808
-6.495322	17.384839	2.741489
-6.372845	15.325842	2.288110
-6.424281	13.983016	1.971818
-7.391807	14.662092	1.946920
-6.274497	16.793797	1.983033
-7.237284	17.420138	1.898478
-6.789664	14.792592	1.485276
-7.189303	14.277765	1.307237
-6.570001	17.608151	1.386406
-7.327662	17.644630	1.226134
-5.197441	12.541114	-0.121789
-5.500358	12.020093	-0.241351
-5.963534	11.880049	-0.370838
-6.487211	17.444807	-0.669459
-5.086164	12.288374	-0.602293
-5.444364	11.912013	-0.720096
-5.945059	11.853045	-0.855885
-6.457553	17.483376	5.696731
-7.249688	17.551742	5.580430
-8.003405	17.473775	5.441817
-6.877547	13.641896	4.168562
-6.457112	17.464361	4.912620
-6.959273	13.865957	3.006419
-5.184087	14.008468	2.772172
-5.758457	13.955916	2.649559
-7.961128	17.444965	3.176575
-7.198921	14.370334	2.506856
-5.348265	14.449785	2.276050
-7.156021	17.359309	2.588412
-6.267414	13.752645	1.936611
-7.345457	14.682036	1.946567
-5.532580	14.947761	1.763038
-7.178501	17.429379	1.897076
-6.364204	13.978606	1.401579
-7.136109	14.281032	1.305525
-6.451983	17.455169	1.372796
-7.263237	17.642113	1.224405
-5.278642	12.848358	-0.124614
-5.457257	12.023256	-0.241077
-5.923047	11.890235	-0.370587
-6.440915	17.484321	-0.670214
-5.071193	12.359372	-0.605007
-5.404495	11.921385	-0.719657
-5.904220	11.862295	-0.855241
-6.396655	17.483346	5.690300
-6.262698	13.784851	4.286980
-6.720842	13.433433	4.098542
-6.403502	17.484089	4.912620
-7.328644	17.898324	4.893207
-6.382727	12.815140	2.774322
-5.043963	13.759366	2.719801
