x	y	z
-1.135069	27.277150	4.791263
-1.366114	17.393660	2.890247
-0.082199	17.324797	2.559259
-0.581087	15.023171	3.213492
-1.315067	17.367950	3.546197
-1.961785	17.388162	3.390902
-0.028163	17.338893	3.217960
-1.051265	27.277552	4.790745
-1.310963	17.374159	2.886324
-0.029060	17.332882	2.560428
-0.535099	15.027815	3.214119
-1.278530	17.602551	3.593280
-1.907252	17.383363	3.388809
0.020206	13.995985	2.597543
-0.488099	13.761889	2.416720
-1.254022	17.327916	2.877990
0.020213	14.527337	2.145990
-0.475508	14.614971	3.125495
-1.046257	15.043293	3.070179
-1.852454	17.375466	3.386146
0.063345	14.040101	2.605754
-0.443420	13.687520	2.403410
-1.200855	17.331684	2.877990
0.064822	14.536111	2.147305
-0.428594	14.545982	3.110445
-0.999125	15.031766	3.067186
-1.798229	17.372279	3.384434
0.106486	14.048689	2.607396
-0.401483	13.690785	2.403756
-1.147676	17.335284	2.877990
0.130409	17.324502	2.559259
-0.383630	14.534521	3.107728
-0.954120	15.052364	3.070777
-1.745217	17.380645	3.385004
0.148257	13.923435	2.584222
-0.360848	13.744136	2.412917
-1.094984	17.346602	2.879297
0.183538	17.322041	2.558967
-0.329847	14.141638	3.023492
-0.907699	15.051308	3.069979
-1.692932	17.396666	3.387097
0.192887	14.062518	2.610133
-0.321123	13.850540	2.431413
-1.041583	17.346925	2.878807
0.236707	17.323374	2.559259
-0.286599	14.149427	3.024955
-0.860622	15.038369	3.066787
-1.640012	17.406665	3.388048
0.239643	14.277153	2.650096
-0.278787	13.859338	2.432796
-0.988471	17.352008	2.879134
0.233548	13.957560	2.062108
-0.232265	13.514692	2.889092
-0.965329	17.826623	3.634777
-1.586691	17.412591	3.388238
0.282956	14.251775	2.645534
-0.237122	13.910353	2.441612
-0.935337	17.356929	2.879460
0.284535	14.369220	2.123047
-0.190856	13.519252	2.889927
-0.766333	15.004221	3.058807
-1.532832	17.412488	3.387287
0.327107	14.269516	2.649001
-0.193123	13.816470	2.425017
-0.881732	17.352822	2.878316
0.329455	14.404873	2.128454
-0.155581	14.081061	3.009906
-0.856633	17.846892	3.637770
-1.477908	17.399500	3.383863
0.370807	14.265497	2.648453
-0.150766	13.819952	2.425536
-0.827502	17.334750	2.874884
0.449428	17.325100	2.560136
-0.108813	13.634580	2.914383
-0.800908	17.827901	3.633381
-1.421397	17.365792	3.376443
0.413857	14.239722	2.643892
-0.108482	13.835123	2.428129
-0.774360	17.338193	2.875048
0.502435	17.318695	2.559405
-0.066882	13.614314	2.909993
-1.367804	17.366156	3.375682
0.457826	14.247230	2.645534
-0.066003	13.828496	2.426919
-0.721163	17.340487	2.875048
0.555534	17.316084	2.559259
-0.027305	14.802615	3.163954
-1.315260	17.380061	3.377585
0.509456	14.470774	2.687321
-0.023579	13.829619	2.427092
-0.542813	14.093341	2.336385
0.498624	14.184219	2.096596
0.017304	14.144496	3.023283
-0.483432	13.539427	2.758353
-1.291999	17.798200	3.458058
0.557610	14.567392	2.705568
0.019082	14.000021	2.456996
-0.491186	13.858316	2.297162
0.545387	14.267637	2.109164
0.060552	14.110150	3.015967
-0.483920	14.828724	3.020702
-1.237797	17.807957	3.459199
0.604696	14.623573	2.716334
0.062243	14.047174	2.465293
-0.447837	13.834120	2.292913
0.715455	17.324074	2.561305
0.105194	14.293739	3.055263
-0.401128	13.568583	2.763739
-1.185369	17.844974	3.465668
0.648467	14.597092	2.711772
0.105878	14.118816	2.477912
-0.407732	13.915306	2.306150
0.768820	17.326739	2.562036
0.142245	13.641118	2.915846
-0.386955	14.606117	2.974815
-1.130368	17.844609	3.464906
0.693293	14.596016	2.711955
0.148517	14.054407	2.466676
-0.368531	14.049631	2.328213
0.822256	17.330228	2.562913
0.174857	12.956142	2.769531
-0.342440	14.619971	2.977409
-1.074730	17.833294	3.462053
0.724463	14.324765	2.661957
0.191970	14.078506	2.470997
-0.401060	17.316303	2.869328
-1.033427	17.364959	2.713205
0.875370	17.326636	2.562767
0.212904	12.852879	2.747584
-0.302869	14.880572	3.030278
-1.023489	17.897274	3.473848
0.786369	14.657268	2.724181
0.231855	13.879905	2.436253
-0.347972	17.319425	2.869655
-0.980314	17.371007	2.713667
0.770637	14.378110	2.126992
0.253141	12.893229	2.756363
-0.258824	14.974507	3.049231
-0.963749	17.811123	3.456536
0.830999	14.648897	2.723086
0.274398	13.877159	2.435907
-0.243052	14.278316	2.365639
-0.926068	17.356172	2.710893
0.981500	17.317975	2.562328
0.294005	12.950074	2.768695
-0.211001	14.842958	3.022297
-0.909351	17.818898	3.457487
0.316296	13.846711	2.430722
-0.196451	14.078743	2.332463
-0.871774	17.338210	2.707657
0.828102	13.858622	2.050856
0.339706	13.180798	2.818233
-0.167014	14.982672	3.050627
-0.854632	17.820625	3.457297
1.098710	17.471547	3.248981
0.359286	13.865367	2.434179
-0.149563	13.739925	2.276243
-0.818996	17.349685	2.709044
0.957095	15.232336	2.254568
0.381073	13.211952	2.825131
-0.117001	14.482403	2.948680
-0.799339	17.809431	3.454633
0.995559	15.091923	2.807025
0.431670	14.894021	2.614988
-0.107324	13.729467	2.274445
-0.765895	17.355077	2.709507
1.141174	17.313144	2.563059
0.422104	13.226360	2.828475
-0.071082	14.185789	2.888230
-0.577499	13.812753	2.679010
1.021605	14.795517	2.752465
0.460701	14.372843	2.523719
-0.064869	13.659687	2.262842
-0.712688	17.358333	2.709661
1.194762	17.316470	2.564082
0.460901	13.174182	2.817606
-0.027720	14.268251	2.904989
-0.582240	15.030901	2.914912
1.053552	14.605987	2.717794
0.501959	14.290645	2.509545
-0.023696	14.096865	2.335241
-0.659430	17.360438	2.709661
0.958137	13.292887	1.968728
0.502247	13.197136	2.822832
0.016145	14.348621	2.921348
-0.539342	15.122878	2.932415
1.066353	14.177175	2.638600
0.524183	13.723107	2.410152
0.023982	17.290347	2.864261
-0.606200	17.363366	2.709815
1.039176	13.825545	2.048080
0.547234	13.304967	2.846242
0.057055	13.606728	2.770323
-0.485940	14.909576	2.890751
1.356986	17.330113	3.226172
0.570953	13.834606	2.430030
0.077133	17.313869	2.868184
-0.552927	17.365144	2.709815
1.090077	13.930780	2.064154
0.588525	13.313971	2.848541
0.096865	13.339965	2.716058
-0.440225	14.911977	2.890942
1.107221	13.603942	2.533129
0.612696	13.817046	2.427265
0.104186	13.848868	2.294220
-0.499564	17.363795	2.709353
1.119578	13.764678	2.040042
0.624936	13.218328	2.828475
0.137700	13.330786	2.714262
-0.395615	14.956439	2.899312
1.194804	14.143247	2.634220
0.669732	14.124027	2.481542
0.183023	17.280515	2.862791
-0.445935	17.351419	2.707195
1.458245	17.272447	2.560575
0.185410	13.838821	2.817805
-0.355258	15.194117	2.945161
1.513943	17.288485	3.220880
0.720610	14.271427	2.507816
0.236455	17.310452	2.867857
-0.392386	17.338875	2.705037
1.200220	13.714188	2.033612
0.686184	13.500730	1.863536
0.222187	13.493310	2.747579
-0.311632	15.342365	2.973697
1.276503	14.079835	2.623819
0.765023	14.280952	2.509890
0.289611	17.312605	2.868347
-0.339228	17.341974	2.705346
1.235862	13.639504	2.023091
0.933947	17.326747	2.392034
0.270378	13.840362	2.818404
-0.262005	15.195028	2.944971
1.365399	14.563353	2.714692
0.810838	14.313939	2.516113
0.342607	17.305718	2.867367
-0.285989	17.340957	2.705037
1.614939	17.234656	2.557067
0.805246	14.132209	1.951346
0.322648	14.273451	2.906784
-0.210294	14.836482	2.875342
1.449502	14.966206	2.790602
0.855160	14.318267	2.517323
0.396421	17.336146	2.872596
-0.232773	17.340765	2.704883
1.267773	13.096993	1.943739
0.819855	13.651069	1.885250
0.774473	12.359046	2.646836
0.356503	13.885462	2.827980
-0.192543	17.337387	3.359892
1.732146	17.330239	3.232376
0.881489	14.035417	2.468059
0.449784	17.341752	2.873740
-0.179510	17.335469	2.703959
1.729312	17.311047	2.569927
0.861170	13.639592	1.884021
0.410419	14.278059	2.908181
-0.139510	17.357530	3.363697
1.453723	14.107121	2.632031
0.967865	14.690151	2.583701
0.503072	17.343250	2.874231
-0.104236	14.304669	2.231159
1.463756	14.211779	2.110479
0.902357	13.627001	1.882655
0.442101	13.895746	2.830573
-0.086228	17.351986	3.362555
1.595696	15.032404	2.805565
1.192853	17.295950	3.042637
0.556025	17.333737	2.872923
-0.060562	14.355311	2.239018
1.479379	13.943578	2.071315
1.200643	17.325207	2.394083
0.510149	14.622924	2.979005
-0.027277	14.346095	2.780030
1.889333	17.293039	3.228544
1.060178	14.714391	2.589059
0.473977	13.484786	2.235222
-0.019924	17.312674	2.700260
1.464481	13.410878	1.992841
0.981305	13.556985	1.873778
0.538431	14.184571	2.890026
0.017117	14.672048	2.843190
1.582842	14.087282	2.630936
1.299473	17.295180	3.043847
0.508224	13.296946	2.204334
0.026453	13.798152	2.152102
1.499656	13.353235	1.984949
1.044140	13.835440	1.912699
0.570618	13.906754	2.833766
0.062035	14.649347	2.838815
1.626392	14.085290	2.631483
1.168340	14.936401	2.629335
0.548853	13.291381	2.203680
0.068544	13.749591	2.144551
1.566477	13.572637	2.018268
1.356403	17.267006	2.387664
0.633185	14.356231	2.925737
0.106662	14.605892	2.830444
1.698309	14.322374	2.676737
1.207933	14.856174	2.615852
0.589803	13.293577	2.204334
0.115429	14.333237	2.235628
1.609856	13.582503	2.020460
1.107006	13.559227	1.875417
0.679304	14.398267	2.934715
0.151319	14.590771	2.827590
1.209024	14.325356	2.523028
0.654194	13.789356	2.286866
0.192553	17.313591	2.700568
1.652833	13.588302	2.022068
1.143665	13.497529	1.867360
0.698539	13.899934	2.833566
0.195660	14.558826	2.821503
1.519425	17.367221	3.059577
0.873843	17.297903	2.869164
0.245767	17.319834	2.701647
2.076229	16.642987	2.477570
1.179263	13.427838	1.858210
0.762680	14.300870	2.915762
0.235577	14.270547	2.765761
1.298055	14.330419	2.525275
0.734621	13.707256	2.273955
0.299704	17.365430	2.708890
2.148108	16.799432	2.501828
1.222786	13.449808	1.861761
0.790050	14.005939	2.856110
0.277110	14.154916	2.743503
1.370859	14.634295	2.579552
0.778010	13.728577	2.277877
0.353140	17.372332	2.710123
2.251674	17.190020	2.561013
1.621940	17.253045	2.388893
0.862226	14.494489	2.956262
0.313867	13.859553	2.686430
1.418311	14.656490	2.584219
1.033424	17.296021	2.870308
0.406204	17.361289	2.708582
2.319392	17.294806	2.577672
1.380066	14.212113	1.968416
0.906323	14.485908	2.955064
0.354342	13.779031	2.671020
1.922200	14.001335	2.622907
1.434592	14.364909	2.533572
1.086977	17.300646	2.871616
0.459388	17.356997	2.708120
1.931147	14.071971	2.098204
1.437687	14.347781	1.987808
0.842989	12.841345	2.620096
0.382178	13.276419	2.573806
1.907863	13.587409	2.546449
1.390685	13.506084	2.382840
1.141866	17.324793	2.876192
0.410710	13.904751	2.169670
1.900057	13.536963	2.019291
1.447903	14.016153	1.942470
0.883188	12.850430	2.622490
0.421751	13.238879	2.566767
2.146659	14.954726	2.803923
1.429725	13.479226	2.378864
1.195624	17.330067	2.877663
0.565429	17.340028	2.705962
1.942422	13.536946	2.020168
1.511651	14.206690	1.969509
0.926889	12.907280	2.634660
1.952387	13.310845	2.496816
1.469148	13.457152	2.375753
1.248786	17.326317	2.877663
0.618589	17.337222	2.705808
2.538340	17.312025	2.584687
1.564719	14.288643	1.981527
0.965972	12.897535	2.633263
0.539733	14.203335	2.754347
1.993797	13.308682	2.497546
1.531747	13.642468	2.409287
1.300901	17.308631	2.875375
0.534421	13.790790	2.152564
2.585726	17.265999	2.578987
1.569970	13.941200	1.934003
0.994261	12.749926	2.603737
0.578350	14.080961	2.730947
2.066727	13.512434	2.536961
1.622141	14.058440	2.483616
1.356845	17.340949	2.881422
0.724874	17.331127	2.705500
2.168602	14.183466	2.119539
1.549190	13.387211	1.857801
1.033848	12.752676	2.604934
0.629731	14.264489	2.766903
2.144717	13.740149	2.580937
1.610559	13.591732	2.402027
1.410200	17.338672	2.881748
0.778485	17.338693	2.707041
2.237882	14.341934	2.144236
2.032121	17.100820	2.374008
1.074200	12.764090	2.607926
0.665711	14.097741	2.734942
2.126098	13.351910	2.509224
1.708253	14.047244	2.483443
1.215243	14.394921	2.393095
0.831676	17.336223	2.707041
2.276273	14.299830	2.138975
1.730352	14.189697	1.970601
1.124172	12.884710	2.633263
2.198412	13.538454	2.545537
1.697461	13.609938	2.407040
1.260690	14.405866	2.395546
0.885211	17.340497	2.708120
2.320292	14.293756	2.139122
2.156557	17.244321	2.395721
1.177362	13.032468	2.664187
0.755497	14.155152	2.746927
2.314762	13.983670	2.630571
1.737210	13.589034	2.404275
1.299273	14.340031	2.385250
0.938834	17.345592	2.709353
2.258670	13.649247	2.043695
2.213734	17.271032	2.400365
1.214422	12.997575	2.657802
0.795435	14.091016	2.734942
2.431575	14.414722	2.713050
1.786949	13.645167	2.415165
1.341973	14.322227	2.382962
0.991368	17.330794	2.707503
2.457139	14.570921	2.182816
1.852237	14.107363	1.961452
0.787441	13.228068	2.567908
2.401353	13.974049	2.631483
1.877102	13.999842	2.478949
1.374976	14.205115	2.364168
0.869801	14.429040	2.254583
2.306702	13.427460	2.012569
2.325340	17.299341	2.406237
0.858202	13.707661	2.661508
2.373537	13.562755	2.555391
1.988058	14.489726	2.566760
1.380208	13.816997	2.300267
1.096377	17.303676	2.704267
2.357774	13.476839	2.021045
1.902048	13.828794	1.924307
0.841308	12.807626	2.487245
2.418067	13.571864	2.558493
1.996641	14.228007	2.521472
1.784329	17.325000	2.885181
1.150442	17.315020	2.706579
3.082586	17.306851	2.596816
1.941429	13.801312	1.921302
1.418048	13.698198	1.764646
1.369087	12.936868	2.648625
0.888074	12.913701	2.508362
2.419871	13.344775	2.517071
2.015525	14.049245	2.490876
1.838514	17.329254	2.886815
1.204106	17.319293	2.707811
3.137962	17.309967	2.598716
1.996170	13.881579	1.933320
1.849060	17.342104	2.234786
1.408771	12.932608	2.648625
0.926492	12.894269	2.505127
2.445102	13.252201	2.501013
2.128477	14.519541	2.575403
1.465338	13.419265	2.236203
1.258023	17.326357	2.709507
3.127530	16.955869	2.546984
2.038172	13.871469	1.932774
1.611665	14.688029	1.893397
1.074845	14.343211	2.787259
2.504972	13.347070	2.520356
2.119631	14.156427	2.512138
1.506170	13.411765	2.235713
1.311621	17.328329	2.710431
2.517687	13.418694	2.016807
2.062343	13.742693	1.915703
1.625358	14.405065	1.857555
1.120982	14.367251	2.792586
2.547936	13.349945	2.522363
2.617899	17.125290	3.040390
1.566199	13.570750	2.263005
1.365243	17.330132	2.711356
2.626704	13.766561	2.070292
2.117247	13.819534	1.927311
1.650696	14.237438	1.836584
1.141721	14.076059	2.736654
2.622219	13.513872	2.554843
2.624728	16.824252	2.988360
2.057999	17.364171	2.896621
1.418888	17.331771	2.712281
3.359377	17.317743	2.605876
2.153361	13.772845	1.921712
1.697065	14.254961	1.839507
1.142891	13.573569	2.639630
2.030625	12.758968	2.267371
1.694703	13.933032	2.325108
1.472556	17.333243	2.713205
2.659454	13.488129	2.030836
2.279235	14.290524	1.994910
2.114496	17.308747	2.234405
1.228666	14.075634	2.737986
2.074019	12.778929	2.272039
1.696652	13.600792	2.270523
1.147112	13.028471	2.039912
3.470626	17.322024	2.609676
2.163563	13.302748	1.857937
1.738756	13.879143	1.792353
2.109035	12.747240	2.267544
1.760893	13.771669	2.299940
1.579780	17.333721	2.714746
3.524937	17.317111	2.610553
2.204041	13.294093	1.857664
1.783350	13.889484	1.794387
1.292806	13.830304	2.691757
2.148460	12.742652	2.267890
1.768670	13.503066	2.255978
1.293959	13.731416	2.151177
3.582255	17.326560	2.613621
2.245641	13.292152	1.858347
2.274488	17.294454	2.235167
3.576035	17.296473	1.953678
1.381283	14.303142	2.784595
2.709980	12.904349	2.447183
2.188378	12.740854	2.268754
1.865818	13.913142	2.325435
1.272717	13.076366	2.049159
3.638241	17.329043	2.615667
2.297164	13.347682	1.867087
1.864305	13.846823	1.790320
3.627858	17.279586	1.953018
1.429052	14.337912	2.792205
2.316894	13.245384	2.359850
2.369086	17.263726	2.886651
1.308386	13.028160	2.042224
3.693451	17.327474	2.617129
2.343234	13.369844	1.871184
2.385164	17.313580	2.239488
3.682304	17.275179	1.953788
2.391538	13.429243	2.393903
2.012447	14.338141	2.398488
1.345399	12.995583	2.037755
3.744711	17.307359	2.615813
2.386155	13.373319	1.872686
2.439239	17.313058	2.240378
3.736968	17.271571	1.954667
2.467859	13.615674	2.428475
2.057827	14.341665	2.400122
1.390291	13.038554	2.045152
3.809036	17.346999	2.623559
3.142244	17.303687	2.424400
2.000859	13.892892	1.798581
3.789512	17.258084	1.954448
1.665288	15.281568	2.978834
2.802476	12.575503	2.391162
2.438881	13.224469	2.360023
2.147185	14.644714	2.451929
1.448500	13.200212	2.071196
3.859441	17.322679	2.621659
3.195676	17.295914	2.424673
2.546002	17.301690	2.240886
3.167199	14.215624	1.610987
1.574932	14.051974	2.740078
2.494515	13.297273	2.374370
2.592449	17.311409	2.899726
1.504501	13.333161	2.092771
3.915186	17.322337	2.623412
3.251103	17.298685	2.426448
2.163607	14.396294	1.865435
3.914179	17.317882	1.963903
1.672857	14.523016	2.832917
2.623525	13.752021	2.456996
2.144708	14.027601	2.350767
1.556893	13.427612	2.108336
3.968753	17.312172	2.623705
3.305275	17.294467	2.427268
2.225213	14.503317	1.880179
3.967513	17.306761	1.964013
1.717982	14.522690	2.833869
2.522047	13.003241	2.324587
2.155034	13.811381	2.315629
1.609646	13.519904	2.123592
4.022968	17.304731	2.624435
3.362097	17.303695	2.429999
2.252361	14.385687	1.865817
4.023067	17.305156	1.965222
1.715318	14.128494	2.757961
2.128694	13.373094	2.243230
1.645006	13.464883	2.115733
4.078309	17.301938	2.625897
3.419966	17.317594	2.433413
2.766263	17.320076	2.247496
4.076367	17.293700	1.965332
1.755017	14.093938	2.752254
2.785389	13.904026	2.488629
2.166234	13.345077	2.239635
1.678692	13.398989	2.106178
4.133440	17.298003	2.627212
3.476588	17.324504	2.435871
2.820663	17.319340	2.248513
4.130559	17.285946	1.965882
2.742585	13.475570	2.413436
2.207810	13.342261	2.240289
1.732375	13.491776	2.121589
4.193476	17.314085	2.631596
3.532691	17.328317	2.437919
2.871673	17.297884	2.246860
4.188486	17.293480	1.968190
2.665675	12.895113	2.310932
2.340107	13.877286	2.331319
4.247990	17.306901	2.632473
3.587444	17.325157	2.439012
2.924232	17.286059	2.246479
4.244839	17.294061	1.969730
2.818136	13.424751	2.407386
2.954411	17.198269	2.890737
2.322867	17.251860	2.715054
4.299873	17.288988	2.631742
3.641803	17.319887	2.439831
2.423070	14.061088	1.828322
4.303633	17.304106	1.972368
3.006481	17.185236	2.890083
2.360815	17.136006	2.697949
4.354103	17.280512	2.632473
3.696163	17.314444	2.440651
3.039500	17.320546	2.253342
4.354758	17.283111	1.971489
1.953697	13.941885	2.728093
2.708022	12.517693	2.247666
2.507173	14.076610	2.368580
2.440258	17.319468	2.727999
4.415906	17.301580	2.637734
3.751783	17.314641	2.442290
3.096462	17.332621	2.256139
4.417103	17.306266	1.975666
2.745146	12.503554	2.246628
2.348509	12.955420	2.181127
2.494227	17.317768	2.728924
4.474413	17.309021	2.640949
3.800418	17.282731	2.439422
3.151930	17.335727	2.257791
4.473410	17.305144	1.977096
1.890745	12.915512	2.529479
2.825041	12.681580	2.280163
2.355497	12.770609	2.151220
2.150599	14.614017	2.303897
4.533007	17.316267	2.644164
3.232363	14.487405	2.046257
2.649566	14.322897	1.866452
4.528998	17.300952	1.978195
2.920166	12.921680	2.324933
2.634623	14.042273	2.366783
2.167376	14.420727	2.274463
4.590166	17.317577	2.646502
3.918419	17.312228	2.446933
3.260625	17.328733	2.259443
4.584856	17.297546	1.979404
2.978061	12.992344	2.339280
2.720773	14.259918	2.404862
2.198721	14.330020	2.261210
4.646351	17.314879	2.648255
3.976390	17.321367	2.449937
3.314519	17.322545	2.259951
4.644858	17.309318	1.982373
2.934503	12.624342	2.274631
2.760188	14.229228	2.401103
2.243591	14.329065	2.262134
4.701006	17.306272	2.649132
4.029962	17.311015	2.450210
3.368974	17.319109	2.260841
4.702630	17.312250	1.984352
1.979745	12.455032	2.443869
2.952207	12.526123	2.258556
3.427306	17.382890	2.935026
2.376213	14.877280	2.349821
4.756439	17.300351	2.650447
4.088059	17.319781	2.453214
3.422093	17.308693	2.260841
2.276774	14.206933	1.706013
4.758884	17.309243	1.985671
2.024859	12.491540	2.452240
2.976661	12.458570	2.248011
2.789690	13.923759	2.352401
2.176452	13.363228	2.111726
4.811350	17.292349	2.651470
4.143251	17.315829	2.454443
2.986177	14.864045	1.942712
2.276150	13.929388	1.673515
4.812765	17.297434	1.986001
2.067174	12.509484	2.456996
2.979864	12.304830	2.221910
2.641718	12.978372	2.194038
2.217440	13.356488	2.111726
4.864648	17.278459	2.651616
4.196823	17.304961	2.454717
3.534579	17.318468	2.264908
2.886315	17.329214	2.083034
4.869042	17.294067	1.987320
2.107500	12.514700	2.459279
2.670937	12.919002	2.185376
2.327133	13.755869	2.175989
4.923597	17.284385	2.654831
4.254386	17.310282	2.457311
3.588299	17.310456	2.265290
2.941460	17.332025	2.084446
4.926705	17.295298	1.989189
3.635295	17.315385	2.930941
2.963333	17.195568	2.721527
4.983176	17.292012	2.658339
4.306037	17.291381	2.456492
3.641390	17.299367	2.265290
3.000033	17.354233	2.088214
4.986624	17.303978	1.991938
3.689018	17.307046	2.931431
2.587915	14.746628	2.335181
5.047831	17.316532	2.664476
4.365124	17.302102	2.459906
3.696727	17.298782	2.266688
3.055499	17.357661	2.089745
5.045808	17.309591	1.994357
2.746959	12.696202	2.151873
2.634709	14.747372	2.336568
5.097577	17.289577	2.662723
4.422110	17.303984	2.462091
2.878252	13.269411	1.739861
3.108562	17.347228	2.089627
5.102825	17.307378	1.995896
2.775318	12.639535	2.143702
3.138793	17.262832	2.736629
5.155684	17.290920	2.665353
4.480390	17.310476	2.464959
3.807065	17.295148	2.269230
3.161946	17.338587	2.089745
5.158171	17.299260	1.996775
2.787480	12.511555	2.123436
3.184910	17.216203	2.730773
5.218132	17.306277	2.670176
4.545030	17.340729	2.471241
3.862486	17.294035	2.270628
3.214945	17.327828	2.089627
5.214950	17.295726	1.998205
4.622200	17.612595	1.832588
2.785616	12.324923	2.093202
3.168830	16.840278	2.672675
5.280722	17.321414	2.674998
4.602275	17.342024	2.473426
3.920347	17.303386	2.273424
3.266433	17.309100	2.088567
5.269438	17.284397	1.998754
4.676724	17.600255	1.832789
3.229028	14.085683	2.393912
3.106465	16.234623	2.578054
5.342581	17.333493	2.679382
4.657257	17.334520	2.474382
3.977635	17.309645	2.275839
3.322141	17.312651	2.090216
5.328882	17.289046	2.001173
4.731474	17.588706	1.833089
3.272003	14.074750	2.393749
3.211160	16.507248	2.622898
4.709377	17.316326	2.473835
4.032973	17.307020	2.277110
3.369346	17.272163	2.086566
5.390177	17.299187	2.004252
4.786198	17.576986	1.833389
3.471115	14.726251	2.506351
2.645652	13.381051	2.127445
4.765372	17.312302	2.475338
4.090840	17.314838	2.279779
2.830014	14.274228	1.725441
5.445315	17.289205	2.005021
4.837192	17.551669	1.832288
3.409662	14.269345	2.430357
3.262954	16.241185	2.583755
4.819792	17.302372	2.476021
4.141170	17.290630	2.278254
3.487225	17.310547	2.093748
5.504965	17.293254	2.007440
4.892621	17.542497	1.832889
3.454817	14.264571	2.431337
2.608561	12.780804	2.034519
4.871509	17.282737	2.475338
4.202855	17.313507	2.282956
3.541312	17.304629	2.094337
5.563473	17.293315	2.009419
4.949120	17.536979	1.833890
3.491509	14.225161	2.426435
2.675837	12.908189	2.056094
4.928584	17.281999	2.477386
4.253820	17.291864	2.281812
3.595800	17.300489	2.095161
5.622034	17.293179	2.011398
5.005631	17.531281	1.834891
2.949277	14.010847	2.233162
4.991467	17.301063	2.482302
4.316446	17.317229	2.286896
3.650501	17.297150	2.096103
5.677853	17.284349	2.012387
5.054147	17.497679	1.832989
3.699889	17.313025	2.761287
5.047575	17.296128	2.483804
4.372226	17.314485	2.288295
3.704591	17.290724	2.096692
5.745257	17.310242	2.017445
5.115339	17.507878	1.835693
2.690639	12.404077	1.979657
5.103980	17.291963	2.485443
4.427292	17.308677	2.289311
3.760153	17.290921	2.098105
5.803708	17.308553	2.019314
5.170157	17.495918	1.836093
2.728682	12.395765	1.979657
5.164658	17.301852	2.489131
4.483109	17.305575	2.290710
3.818105	17.301609	2.100813
5.859653	17.299140	2.020303
5.218966	17.463767	1.834391
2.767560	12.391192	1.980273
5.224299	17.307738	2.492271
4.539453	17.304212	2.292362
3.875290	17.308225	2.103050
5.915594	17.289544	2.021292
5.276261	17.460055	1.835693
3.926259	17.328955	2.771304
5.278530	17.295419	2.492818
4.596594	17.305541	2.294395
3.930792	17.306907	2.104346
5.972506	17.282586	2.022612
5.329221	17.441883	1.835492
3.978299	17.312012	2.770533
5.338285	17.300914	2.495959
4.656105	17.315305	2.297573
3.988328	17.314119	2.106700
6.033361	17.286706	2.025250
5.380064	17.416894	1.834591
4.033186	17.307424	2.771766
5.394583	17.294858	2.497461
4.713894	17.318165	2.299860
4.042332	17.305670	2.107171
6.088019	17.272800	2.025800
5.429914	17.388910	1.833389
4.085811	17.293046	2.771458
5.459830	17.316961	2.503060
4.767530	17.305535	2.300115
4.101127	17.317344	2.110115
6.154980	17.293371	2.030418
5.481440	17.366476	1.832789
4.138156	17.277547	2.770995
5.513835	17.302962	2.503470
4.818736	17.284138	2.299225
4.157018	17.316268	2.111528
6.213385	17.289371	2.032177
5.535904	17.353370	1.833189
4.197437	17.290694	2.775156
5.576611	17.316138	2.507840
4.877396	17.289321	2.301894
4.210594	17.305362	2.111763
6.271823	17.285177	2.033936
5.596139	17.358085	1.835492
4.251172	17.280613	2.775618
5.629097	17.297064	2.507566
4.937494	17.299074	2.305199
4.264855	17.297183	2.112352
6.327559	17.273319	2.034816
5.645360	17.328536	1.834190
3.447206	13.829523	2.222991
5.690802	17.306063	2.511390
4.997423	17.307669	2.308376
4.322716	17.303286	2.114707
6.391210	17.282726	2.038224
5.705341	17.331927	1.836393
3.493005	13.832294	2.225149
5.752614	17.314844	2.515214
5.050498	17.292255	2.308376
4.381872	17.314010	2.117651
6.452197	17.284453	2.040752
5.772932	17.357771	1.841000
3.546444	13.864588	2.232084
5.812328	17.316837	2.518082
5.106898	17.288094	2.309901
4.439162	17.316839	2.119652
6.512554	17.284109	2.043061
5.827742	17.344694	1.841500
4.491903	17.339051	2.793649
5.868927	17.309243	2.519584
5.161333	17.277099	2.310537
4.495512	17.315633	2.121183
6.580036	17.302137	2.047569
5.884445	17.337097	1.842602
4.549591	17.342391	2.796423
5.929386	17.312711	2.522725
5.225213	17.297263	2.315367
4.551645	17.313285	2.122596
6.636649	17.291148	2.048668
5.940833	17.328373	1.843603
4.605058	17.336947	2.797810
5.990893	17.318779	2.526276
5.284051	17.300123	2.317909
4.607805	17.310754	2.124009
6.696847	17.289243	2.050867
5.997875	17.321349	1.844805
6.043671	17.299383	2.526139
5.342370	17.300890	2.320196
4.662184	17.301332	2.124598
6.757095	17.287129	2.053066
6.055257	17.315076	1.846107
6.106274	17.307851	2.530099
5.403108	17.309036	2.323501
4.717332	17.294612	2.125540
6.818122	17.286659	2.055485
6.111002	17.303923	1.846908
5.509546	17.627299	1.685294
6.160011	17.290903	2.530372
5.456783	17.294269	2.323755
4.770634	17.281015	2.125657
6.878107	17.283208	2.057574
6.169408	17.300087	1.848510
5.562101	17.605565	1.684840
6.221412	17.295228	2.533787
5.513130	17.287842	2.325153
4.833514	17.301685	2.130014
6.937395	17.277705	2.059443
6.233916	17.312907	1.851915
5.631233	17.635853	1.689383
5.570706	17.285008	2.327060
4.891165	17.303020	2.132016
6.996340	17.271078	2.061202
6.291421	17.305857	1.853216
5.686230	17.621337	1.689656
5.628624	17.282926	2.329093
4.948322	17.302252	2.133782
7.066591	17.291856	2.066259
6.350655	17.303286	1.855019
5.750453	17.635053	1.692655
7.202232	17.601832	1.402959
4.194282	14.525783	2.358143
5.684411	17.274056	2.330237
5.002762	17.291760	2.134371
7.127563	17.289392	2.068568
6.401291	17.277190	1.854318
5.803906	17.615436	1.692473
7.263429	17.597168	1.404357
5.742701	17.272536	2.332398
5.062761	17.300156	2.137314
7.187824	17.284882	2.070657
6.457753	17.266789	1.855319
5.867044	17.624949	1.695108
7.322749	17.587690	1.405387
5.803561	17.278344	2.335576
5.119477	17.296923	2.138845
7.249662	17.283830	2.073185
6.520886	17.273891	1.858223
5.933786	17.644622	1.698744
7.363929	17.534797	1.402959
5.861960	17.276424	2.337736
5.177075	17.296355	2.140729
7.308463	17.275238	2.074835
6.583062	17.277978	1.860827
5.997181	17.653680	1.701379
5.929729	17.301522	2.343583
5.234431	17.294648	2.142495
7.376251	17.287473	2.079012
6.646395	17.284631	1.863731
6.052929	17.639908	1.701833
4.433055	14.513599	2.366927
6.000952	17.335737	2.350700
5.297054	17.309843	2.146381
7.435539	17.279369	2.080771
6.711990	17.296625	1.867235
6.109302	17.627841	1.702469
4.471439	14.480105	2.363691
6.046252	17.294775	2.347650
5.355712	17.311536	2.148618
7.491287	17.262860	2.081541
6.769378	17.287070	1.868437
6.165658	17.615596	1.703106
4.500533	14.417274	2.355677
6.107209	17.298590	2.350700
5.408798	17.295025	2.148618
7.552581	17.258917	2.083850
6.828232	17.281025	1.870039
6.224319	17.609741	1.704378
6.156921	17.270430	2.349429
5.469914	17.303914	2.151797
7.627966	17.286588	2.090007
6.888955	17.279405	1.872142
6.286350	17.613072	1.706559
6.220291	17.280391	2.353369
5.527811	17.302186	2.153681
7.689853	17.283082	2.092425
6.952703	17.284958	1.875046
6.346771	17.611503	1.708286
8.336531	18.714513	1.511326
4.611818	14.309412	2.344890
6.281408	17.283598	2.356420
5.583614	17.293651	2.154741
7.750977	17.277547	2.094624
7.001958	17.254325	1.874045
6.405540	17.605050	1.709558
8.387370	18.674293	1.510149
6.342604	17.286595	2.359470
5.639108	17.283992	2.155683
7.810092	17.267269	2.096273
7.075971	17.284327	1.879652
6.471539	17.618034	1.712738
8.462312	18.687538	1.513313
6.399743	17.278217	2.360995
5.702368	17.297732	2.159568
7.874990	17.269453	2.099462
7.139979	17.289207	1.882556
6.532485	17.616772	1.714556
8.529131	18.682353	1.515005
6.462100	17.283586	2.364427
5.761372	17.298057	2.161805
7.935407	17.261467	2.101441
7.204849	17.295694	1.885660
6.596276	17.622761	1.717100
8.584322	18.651569	1.514637
6.528754	17.299871	2.369384
5.816948	17.287830	2.162747
8.008388	17.280328	2.106718
7.267898	17.297358	1.888264
6.648552	17.597783	1.716646
8.653257	18.650476	1.516697
6.585682	17.289956	2.370782
5.876351	17.288706	2.165102
6.914550	14.800871	1.807015
7.335296	17.308873	1.891969
6.710315	17.597774	1.718645
8.704942	18.612095	1.515740
6.645458	17.287262	2.373197
5.942585	17.309106	2.169930
6.944258	14.746317	1.802947
7.388756	17.287204	1.892069
6.779653	17.617069	1.722553
6.702409	17.276965	2.374595
6.000215	17.303928	2.171578
6.913174	14.564216	1.783267
7.460268	17.307398	1.896775
6.845927	17.627749	1.725643
6.864962	14.446369	1.179898
6.762976	17.275717	2.377264
6.057213	17.296686	2.172991
6.911067	14.445208	1.771283
7.518091	17.295379	1.897977
6.926502	17.674350	1.732277
8.872428	18.523995	1.515152
6.832708	17.297323	2.383111
6.113229	17.286446	2.174051
6.958805	14.431100	1.772163
7.572316	17.274965	1.898277
6.990581	17.678020	1.734730
8.888896	18.413161	1.508310
6.887580	17.280886	2.383746
6.173916	17.289119	2.176759
6.989144	14.381076	1.768645
7.638955	17.282594	1.901682
7.044415	17.655566	1.734639
8.906077	18.305094	1.501689
6.948706	17.279921	2.386542
6.237371	17.299056	2.180409
7.031483	14.355995	1.768205
7.698826	17.274526	1.903384
7.100036	17.637565	1.735003
8.893261	18.137100	1.490138
7.022942	17.310910	2.393787
6.301964	17.311566	2.184412
8.509686	17.239907	2.126617
7.760760	17.270792	1.905587
7.154488	17.616623	1.735094
6.427027	17.628309	1.534387
8.872429	17.955054	1.477411
7.082780	17.305807	2.396075
6.360526	17.307063	2.186296
8.587325	17.263555	2.132774
7.824385	17.270465	1.908191
7.214542	17.609334	1.736548
6.487620	17.626279	1.535936
8.904356	17.881327	1.473585
6.419466	17.303296	2.188298
8.646039	17.248678	2.134203
7.884774	17.262669	1.909993
7.272337	17.596321	1.737457
6.548609	17.624977	1.537566
8.875531	17.687242	1.459828
6.478093	17.298399	2.190182
7.943940	17.251953	1.911495
7.409823	17.774310	1.757268
6.607551	17.617869	1.538707
8.920752	17.642128	1.458357
6.533591	17.284945	2.191006
7.997250	17.228403	1.911596
7.622199	18.126959	1.794436
6.669686	17.618954	1.540582
8.879759	17.428072	1.442907
6.593669	17.283376	2.193361
6.960420	14.875103	1.652844
7.684385	18.119075	1.795981
6.727266	17.607718	1.541397
8.883084	17.303155	1.434815
6.868650	14.673641	1.039765
6.659865	17.297354	2.197718
6.960183	14.756490	1.642030
7.738763	18.092666	1.795708
6.783764	17.593505	1.541967
8.922381	17.249246	1.432608
6.885104	14.592031	1.035473
6.719015	17.292577	2.199719
6.870424	14.451113	1.610387
7.817900	18.123704	1.801161
6.850358	17.605121	1.544820
8.999226	17.267779	1.436433
6.912694	14.534790	1.032912
6.782186	17.297767	2.203016
7.006740	14.621983	1.631816
7.871083	18.094154	1.800615
6.917815	17.618345	1.547836
9.059579	17.254217	1.437610
6.961999	14.523413	1.033616
6.839607	17.287959	2.204429
7.019112	14.533221	1.624305
7.936159	18.091809	1.802796
6.989457	17.641516	1.551748
9.127860	17.255433	1.440038
6.999577	14.487608	1.032591
6.902186	17.290875	2.207490
7.014024	14.409632	1.612890
7.991627	18.067375	1.802796
7.059085	17.658860	1.555171
9.196234	17.256392	1.442466
8.864079	18.203933	1.299401
6.959653	17.280671	2.208903
7.033659	14.338023	1.607282
8.054320	18.059144	1.804432
7.116584	17.645439	1.555904
9.263285	17.254457	1.444673
8.894388	18.124692	1.295687
7.022355	17.283158	2.211965
8.498341	17.190175	1.929920
8.097843	18.008009	1.801797
7.176696	17.638293	1.557209
9.326614	17.245254	1.446291
8.913233	18.023071	1.290371
7.088151	17.292773	2.215968
8.589640	17.241502	1.938632
8.147707	17.971290	1.800615
7.229261	17.612503	1.556882
9.380431	17.218310	1.446438
8.858538	17.775028	1.274552
7.146105	17.282875	2.217499
8.666601	17.263086	1.944040
8.217708	17.978815	1.803887
7.286693	17.598529	1.557616
8.877648	17.677314	1.269493
7.209415	17.285615	2.220678
8.739285	17.275480	1.948446
8.256156	17.917340	1.800252
7.340267	17.575173	1.557534
8.880020	17.547596	1.262127
7.272809	17.288130	2.223857
8.800378	17.264543	1.950248
8.324093	17.919924	1.803069
8.063534	19.141577	1.698536
8.848133	17.352242	1.250023
7.334348	17.285848	2.226447
8.856485	17.243658	1.950949
8.373964	17.883480	1.801979
8.123001	19.118583	1.698699
8.889926	17.302824	1.248422
7.394768	17.280612	2.228685
8.929467	17.255287	1.955355
8.420289	17.839693	1.800161
8.174944	19.077999	1.697313
8.929205	17.248881	1.246501
7.447356	17.256931	2.228567
9.000303	17.262220	1.959260
6.863326	14.426200	1.457831
8.243715	19.076617	1.699432
8.994082	17.244410	1.248166
7.524438	17.289546	2.235749
9.062937	17.253023	1.961363
8.542079	17.813731	1.802796
8.289063	19.021084	1.696743
9.058549	17.238821	1.249767
7.586624	17.287295	2.238457
9.128392	17.248880	1.964067
8.603624	17.801788	1.804250
8.346579	18.993739	1.696580
9.138942	17.262986	1.253545
7.648064	17.283008	2.240930
9.201397	17.258548	1.968373
8.675207	17.810226	1.807795
8.358377	18.863252	1.687207
9.207359	17.263924	1.255659
7.714809	17.290297	2.244933
9.264188	17.248643	1.970476
8.728051	17.779950	1.807431
8.345468	18.679182	1.673025
9.267365	17.248783	1.256620
7.772708	17.277415	2.246346
9.328899	17.242019	1.972979
8.785650	17.759337	1.808067
8.407649	18.664396	1.674003
9.326416	17.231678	1.257452
7.831830	17.267051	2.248113
8.839649	17.731410	1.807976
8.485477	18.683887	1.678078
9.370639	17.187212	1.256299
7.893440	17.261908	2.250585
8.880595	17.677509	1.805250
8.548153	18.669547	1.679138
26.428159	48.121498	3.523351
7.953014	17.252039	2.252469
8.846631	17.476034	1.787438
8.618756	18.672191	1.681746
26.575187	48.039318	3.523287
6.955052	14.966273	1.956810
8.857218	17.364534	1.778805
8.678944	18.651987	1.682317
26.771504	48.045606	3.529755
6.977344	14.894506	1.950217
8.886778	17.291220	1.774080
8.741206	18.636100	1.683295
27.004742	48.116414	3.541027
8.928795	17.242650	1.771899
27.143395	48.017697	3.539875
9.003302	17.256674	1.776170
6.883905	14.445159	1.308541
27.347364	48.033930	3.547240
9.002297	17.240069	1.063531
7.018351	14.629994	1.923959
9.076591	17.267757	1.780168
8.847628	18.420098	1.671069
27.553178	48.051958	3.554797
9.058866	17.219439	1.063967
6.944761	14.363430	1.891697
9.136981	17.253910	1.781622
8.864145	18.310336	1.663571
27.700470	47.967203	3.554797
9.128486	17.223327	1.065933
6.991840	14.348305	1.892522
9.200654	17.246005	1.783712
8.911538	18.265140	1.661941
27.717558	47.658561	3.538209
9.208090	17.245447	1.069045
7.038454	14.332135	1.893228
9.264835	17.238751	1.785894
8.860666	18.020375	1.642135
9.265213	17.225031	1.069537
28.698757	45.106255	1.987462
9.324791	17.223381	1.787257
8.872985	17.906481	1.634229
9.315161	17.191256	1.069209
28.718961	44.833713	1.979326
8.876675	17.776630	1.624856
26.246938	48.086299	2.995719
28.657606	44.437184	1.965692
8.867557	17.622888	1.613283
26.373656	47.967924	2.993371
28.615315	44.074141	1.953507
8.863889	17.481816	1.602851
26.565684	47.968020	2.998449
28.682055	43.881582	1.948863
8.873496	17.368447	1.594945
26.777906	48.003141	3.005766
28.669882	43.570490	1.938944
8.895721	17.280884	1.589402
26.949018	47.963417	3.008441
28.661590	43.268219	1.929397
8.947320	17.250857	1.589158
27.115221	47.914403	3.010570
28.692188	43.027102	1.922561
9.014050	17.249825	1.591603
27.315986	47.925548	3.016522
28.665324	42.702407	1.911974
9.078073	17.243256	1.593559
27.533976	47.965349	3.024330
27.725860	41.030316	1.840907
9.156617	17.263751	1.598042
27.926359	41.054953	1.845848
9.214705	17.245246	1.598938
28.140256	41.097712	1.851643
9.282214	17.244101	1.601465
28.584923	41.473606	1.872521
9.336975	17.219047	1.601791
28.657344	41.306890	1.868955
28.591697	40.943487	1.856472
28.664881	40.781179	1.853092
28.600554	40.425465	1.840907
28.578948	40.133212	1.831582
28.649547	39.972244	1.828239
28.580282	39.618337	1.816054
28.576049	39.357418	1.808104
28.626498	39.173549	1.803683
28.573660	38.850472	1.792835
27.961169	47.597314	2.495152
28.553001	38.327422	1.776750
28.055181	47.423609	2.490546
28.596120	38.140498	1.772143
28.237866	47.399964	2.493842
28.578176	40.877938	1.375768
28.397031	47.336239	2.495062
28.689070	40.769632	1.375079
28.550387	47.262574	2.495784
28.562450	37.373890	1.748665
28.585797	40.359211	1.364187
28.654240	47.107336	2.492217
28.534419	37.100729	1.739972
28.567315	40.071899	1.357432
28.652009	46.779825	2.479529
28.589389	36.937149	1.736405
13.847670	19.298846	0.655183
28.652237	46.459573	2.467202
28.643009	36.772789	1.732802
28.546363	39.527136	1.344886
28.780937	46.349384	2.466028
28.542385	36.412618	1.719948
13.911753	19.139125	0.652646
28.645493	45.817011	2.442367
28.659103	39.174554	1.338848
28.636912	45.492194	2.429724
27.612748	34.784918	1.651036
28.625539	45.166176	2.416991
28.646826	44.894557	2.407147
28.635369	38.395482	1.321174
28.653759	44.603060	2.396220
28.599412	38.102785	1.314115
28.640187	44.282585	2.383712
28.645632	43.994429	2.372921
28.661464	37.701381	1.306312
28.606315	43.640653	2.358562
28.654298	37.452900	1.300742
28.679545	43.460967	2.353595
28.677592	37.246008	1.296607
28.641939	43.115655	2.339642
28.688867	37.025101	1.291974
28.603042	42.771813	2.325735
28.643118	36.732743	1.284833
27.766786	41.246892	2.247438
13.388009	17.060961	0.598190
27.813619	41.044081	2.241026
13.414269	16.986859	0.597032
28.000771	41.048509	2.245948
13.503014	16.991796	0.598659
28.144669	40.988764	2.247393
27.610235	34.525914	1.219403
28.402632	41.093704	2.257914
27.729816	34.458174	1.220010
28.498905	40.963728	2.255566
27.853646	34.395467	1.220809
28.572873	40.802454	2.251502
13.906901	17.065813	0.607234
28.568424	40.530883	2.241342
13.969967	17.036206	0.607702
28.644082	40.374608	2.237549
14.024077	16.995580	0.607785
13.526095	17.665764	0.401960
28.641258	40.109307	2.227706
14.047416	16.917866	0.606544
28.700157	37.246562	0.849493
28.578192	39.762476	2.213302
14.130018	16.911510	0.607868
13.430209	17.319328	0.395945
11.290468	12.548291	0.011490
14.291837	16.998918	0.612583
11.253073	12.429823	0.011413
14.396863	17.017571	0.614844
13.352202	17.002265	0.390562
11.261523	12.362714	0.011383
29.325668	34.449015	1.247886
13.439637	17.005935	0.391592
11.234533	12.257335	0.011318
15.695500	17.031830	0.861014
29.484542	34.421135	1.250147
13.517886	16.997490	0.392350
11.266662	12.216929	0.011312
15.748358	16.984331	0.861051
14.567889	16.901760	0.615478
27.631610	34.526225	0.798916
11.283684	12.160315	0.011292
27.730508	34.432724	0.798717
11.222668	12.020384	0.011194
27.856788	34.373119	0.799314
11.237583	11.962573	0.011172
27.986756	34.317715	0.800018
11.236451	11.888070	0.011135
28.105230	34.247922	0.800397
11.226009	11.804266	0.011088
28.305028	34.276405	0.803089
11.300196	11.809508	0.011126
14.111093	16.981661	0.398889
11.283662	11.720034	0.011074
14.232392	17.021129	0.400840
11.265991	11.630055	0.011022
14.312226	17.010281	0.401617
11.277887	11.571089	0.010998
15.574993	17.092351	0.637839
14.272606	16.857935	0.399052
11.294430	11.517157	0.010980
14.453936	16.966286	0.402664
11.326198	11.478893	0.010977
15.691099	17.008952	0.638308
14.526743	16.946154	0.403242
11.335295	11.417832	0.010951
15.743208	16.960732	0.638308
14.583888	16.907563	0.403387
11.351895	11.364608	0.010934
14.756935	17.002434	0.406729
11.340632	11.283880	0.010889
11.961561	12.729084	0.481805
14.897815	17.058745	0.409167
11.358132	11.232159	0.010873
14.896621	16.952123	0.407704
11.216380	11.024122	0.010705
11.900953	12.509877	0.476263
14.992271	16.955778	0.408896
11.192205	10.933057	0.010650
11.947888	11.608332	0.619282
11.940659	12.474751	0.476319
15.072798	16.941822	0.409673
11.214933	10.888220	0.010640
11.940313	11.529972	0.617053
11.927562	12.384778	0.474278
30.832922	34.442834	0.835151
14.076168	16.921974	0.190936
11.251163	10.856539	0.010642
11.955763	12.338077	0.473892
15.377213	17.071890	0.415092
14.244189	17.017499	0.192506
11.254105	10.792899	0.010614
11.953085	12.259826	0.472293
15.478532	17.078713	0.416410
14.303417	16.982132	0.192601
11.211882	10.686567	0.010543
11.858820	11.242210	0.607469
11.952840	12.184564	0.470804
15.549045	17.051094	0.416898
14.394888	16.984702	0.193131
11.168388	10.579908	0.010472
11.832159	11.148211	0.604348
11.969100	12.126492	0.469977
15.651981	17.058563	0.418253
11.206619	10.551078	0.010477
11.901318	11.144644	0.606131
11.968915	12.052122	0.468515
15.703564	17.009727	0.418235
11.229444	10.507765	0.010468
11.903266	11.078123	0.604497
11.924580	11.934027	0.465345
15.746149	16.951214	0.417982
14.593080	16.900692	0.193694
11.285061	10.495056	0.010490
11.905653	11.012374	0.602899
11.899477	11.836056	0.462946
11.737961	12.558785	0.310560
14.785867	17.018135	0.195559
11.326019	10.468530	0.010498
11.903334	10.942657	0.601079
11.873176	11.737650	0.460519
11.645609	12.383598	0.307110
14.838009	16.972692	0.195559
11.386804	10.460116	0.010525
11.882993	10.856882	0.598367
11.861358	11.654229	0.458672
11.412195	10.419065	0.010519
11.897011	10.802908	0.597401
11.775475	11.499057	0.453985
11.465602	12.043251	0.300409
15.022728	16.972680	0.196618
11.470027	10.407523	0.010542
11.886327	10.726857	0.595209
11.790613	11.443383	0.453213
11.473448	11.977693	0.299650
15.120617	16.978036	0.197216
11.543489	10.409788	0.010580
11.887935	10.662315	0.593649
11.803363	11.385641	0.452358
11.591755	10.389007	0.010595
11.826599	10.542011	0.588968
11.727836	11.243533	0.448139
15.236561	16.898307	0.197372
11.684805	10.407935	0.010651
11.859633	10.506340	0.589005
11.771684	11.216464	0.448498
11.487542	11.773545	0.297175
11.230079	12.378293	0.144980
11.700958	10.358118	0.010637
11.899312	10.476509	0.589377
11.558538	10.945913	0.439095
11.292464	11.502797	0.291215
11.193843	12.262542	0.144026
11.763463	10.349254	0.010665
11.936661	10.444560	0.589637
11.437748	10.765157	0.433250
11.433095	11.574798	0.293924
11.276055	12.276749	0.144599
11.819249	10.334179	0.010687
11.434950	10.696555	0.431899
11.278959	11.348900	0.289065
11.253265	12.176737	0.143827
11.859956	10.305740	0.010695
11.455267	10.649852	0.431430
11.311604	11.312122	0.289011
11.224518	12.071122	0.142985
11.903627	10.279763	0.010706
11.540747	10.663501	0.433415
11.222865	11.154724	0.285868
11.228024	12.000849	0.142560
12.029206	10.323953	0.010790
11.260591	11.123753	0.285958
11.290149	11.993286	0.142881
11.224746	11.020507	0.284188
11.168732	11.791612	0.140886
11.525862	10.454748	0.429224
11.189091	10.918286	0.282436
11.163464	11.713859	0.140366
11.563080	10.424023	0.429417
11.197414	10.859544	0.281804
11.191736	11.671615	0.140270
11.599473	10.392501	0.429583
11.226360	10.820976	0.281695
11.193470	11.601963	0.139845
11.692519	10.411376	0.431844
11.236401	10.764351	0.281117
11.235978	11.574742	0.139932
11.767824	10.413877	0.433443
11.185375	10.649852	0.279022
11.787708	10.367162	0.433002
11.826985	10.337529	0.433278
11.223563	10.555674	0.278354
12.005802	10.429026	0.438654
11.266851	10.531432	0.278624
12.086925	10.434603	0.440446
11.282992	10.481845	0.278227
12.159848	10.432620	0.441935
11.329055	10.460067	0.278570
12.216900	10.416668	0.442845
11.431813	10.490157	0.280304
11.208632	11.061077	0.136601
12.289983	10.414034	0.444334
11.520827	10.506913	0.281695
11.202536	10.987426	0.136115
12.359341	10.407831	0.445685
11.546340	10.465475	0.281533
11.204686	10.922294	0.135734
11.951259	11.581184	0.752217
12.454074	10.422470	0.447946
11.568736	10.421302	0.281298
11.162014	10.814112	0.134814
12.516733	10.409780	0.449049
11.629705	10.411770	0.282002
11.141835	10.728491	0.134172
12.599466	10.413361	0.450869
11.687737	10.399304	0.282634
11.221657	10.739197	0.134736
12.710146	10.439372	0.453681
11.699364	10.345515	0.282147
11.178472	10.632357	0.133825
12.788578	10.438254	0.455336
11.800894	10.370955	0.283827
11.203772	10.591143	0.133738
8.710064	6.555672	0.405264
11.873321	10.370218	0.284802
11.196131	10.519062	0.133261
11.913386	10.340952	0.285001
11.267086	10.520834	0.133721
11.997294	10.349417	0.286247
11.299311	10.486218	0.133721
12.063147	10.341844	0.287060
11.340250	10.459638	0.133825
12.109279	10.317107	0.287403
11.392188	10.443041	0.134059
12.176738	10.310273	0.288252
11.470742	10.450468	0.134606
12.304705	10.353979	0.290528
11.498302	10.411200	0.134554
12.354821	10.331573	0.290962
11.594857	10.434069	0.135309
12.404146	10.308318	0.291377
11.617124	10.389781	0.135196
12.473488	10.301412	0.292262
11.662398	10.366049	0.135352
12.636421	10.370928	0.295333
11.710633	10.344785	0.135543
12.622466	10.294827	0.294267
11.761101	10.325302	0.135760
12.761958	10.343561	0.296778
11.865058	10.352282	0.136592
12.827893	10.331954	0.297573
11.985910	10.393134	0.137616
11.941990	10.291035	0.136748
12.084394	10.349315	0.138015
12.118372	10.314136	0.138041
12.188132	10.309197	0.138475
12.322274	10.357976	0.139637
12.358598	10.323970	0.139689
12.400216	10.294309	0.139802
8.552984	5.281129	0.373687
8.668735	5.383036	0.281462
9.259516	5.710606	0.300074
9.345186	5.723940	0.302280
9.395156	5.714984	0.303327
9.387832	5.671143	0.302528
4.754935	-2.429271	-0.192060
4.710141	-2.424637	-0.190550
4.692035	-2.433555	-0.190119
4.631404	-2.420168	-0.187962
4.589469	-2.416209	-0.186560
4.556432	-2.416699	-0.185517
4.549878	-2.431137	-0.185553
4.475520	-2.409086	-0.182822
4.419790	-2.396605	-0.180845
4.383474	-2.394344	-0.179658
4.352467	-2.394774	-0.178688
4.373070	-2.423618	-0.179838
4.371722	-2.440433	-0.180090
4.285815	-2.409753	-0.176854
4.221009	-2.390388	-0.174482
4.194558	-2.392434	-0.173691
4.186332	-2.404793	-0.173655
4.172014	-2.413622	-0.173368
4.136958	-2.410311	-0.172217
4.076104	-2.391636	-0.169989
4.049819	-2.392946	-0.169198
4.044176	-2.406381	-0.169270
4.025630	-2.412100	-0.168803
4.340220	-2.390343	-0.224395
3.991685	-2.408434	-0.167688
4.334613	-2.404616	-0.224486
3.965488	-2.409253	-0.166897
4.306285	-2.406209	-0.223400
3.931651	-2.405241	-0.165783
4.289307	-2.414019	-0.222902
3.900428	-2.402616	-0.164777
4.230606	-2.398102	-0.220233
3.857370	-2.392448	-0.163267
4.185057	-2.389278	-0.218242
3.843230	-2.400037	-0.162979
4.173377	-2.399616	-0.218016
3.824851	-2.404901	-0.162512
4.156485	-2.406902	-0.217518
3.790434	-2.399519	-0.161362
4.130960	-2.409074	-0.216568
3.774628	-2.405765	-0.161002
4.102014	-2.409089	-0.215437
3.738632	-2.398984	-0.159780
4.084286	-2.415560	-0.214894
3.717824	-2.401766	-0.159205
4.062265	-2.419389	-0.214125
3.699547	-2.406078	-0.158738
4.017128	-2.409233	-0.212135
3.684623	-2.412490	-0.158414
3.966106	-2.395208	-0.209827
3.656344	-2.410034	-0.157516
3.946789	-2.400098	-0.209194
3.604799	-2.391955	-0.155610
3.921516	-2.401240	-0.208244
3.605754	-2.408554	-0.155970
3.909879	-2.410639	-0.208018
3.518735	-2.366071	-0.152519
3.895675	-2.418408	-0.207656
3.513942	-2.378536	-0.152627
3.843340	-2.402285	-0.205258
3.513235	-2.393807	-0.152914
3.835952	-2.414065	-0.205258
3.491864	-2.394965	-0.152303
3.806588	-2.411921	-0.204082
3.471342	-2.396582	-0.151728
3.774746	-2.408007	-0.202770
3.457407	-2.402659	-0.151441
3.740443	-2.402302	-0.201322
3.438555	-2.405235	-0.150937
3.720472	-2.405629	-0.200644
3.422171	-2.409445	-0.150542
3.701353	-2.409403	-0.200010
3.370733	-2.388730	-0.148601
3.665535	-2.402130	-0.198472
3.351999	-2.390935	-0.148098
3.630631	-2.395211	-0.196979
3.329223	-2.390134	-0.147415
3.604126	-2.393626	-0.195939
3.298384	-2.383363	-0.146372
3.593443	-2.402451	-0.195758
3.287824	-2.391120	-0.146228
3.536330	-2.379999	-0.193043
3.871262	-2.406190	-0.250609
3.269183	-2.392932	-0.145725
3.532320	-2.393078	-0.193224
3.851166	-2.410110	-0.249785
3.248953	-2.393467	-0.145150
3.517533	-2.398838	-0.192817
3.810807	-2.401155	-0.247644
3.227144	-2.392709	-0.144503
3.487097	-2.393788	-0.191550
3.798363	-2.409625	-0.247315
3.210177	-2.395427	-0.144072
3.496173	-2.415833	-0.192455
3.750561	-2.395469	-0.244680
