x	y	z
-3.621350	6.438211	0.133451
-3.613214	5.910859	0.060095
-3.704146	6.100162	0.322578
-3.554895	7.618636	0.312539
-3.571993	6.982391	0.216335
-3.628880	6.498175	0.134462
-3.620490	5.963801	0.060520
-3.692636	6.123474	0.323211
-3.605803	7.790022	0.319114
-3.605764	7.102058	0.219699
-3.622017	6.532888	0.134950
-3.605274	5.980019	0.060572
-3.679991	6.145059	0.323752
-3.585640	7.809221	0.319449
-3.594753	7.134512	0.220361
-3.630403	6.595649	0.136016
-3.617217	6.041670	0.061084
-3.670823	6.172634	0.324610
-3.577818	7.855653	0.320897
-3.607271	7.214351	0.222484
-3.633643	6.649747	0.136901
-3.583844	6.027813	0.060832
-3.687935	6.244940	0.327816
-3.555757	7.871146	0.321083
-3.599338	7.254038	0.223366
-3.632294	6.696018	0.137623
-3.639559	6.164498	0.062098
-3.666231	6.251916	0.327591
-3.570410	7.968654	0.324612
-3.602677	7.317062	0.224966
-3.618371	6.719455	0.137876
-3.652491	6.229981	0.062645
-3.652060	6.271768	0.328042
-3.577193	8.049886	0.327473
-3.585477	7.338858	0.225297
-3.616121	6.764913	0.138581
-3.641914	6.255849	0.062792
-3.640244	6.853650	0.424364
-3.645303	6.304563	0.329171
-3.550464	8.056251	0.327287
-3.570794	7.366015	0.225793
-3.595349	6.775976	0.138581
-3.638718	6.294696	0.063070
-3.647140	6.917783	0.427640
-3.647829	6.353836	0.331158
-3.530534	8.078094	0.327733
-3.555977	7.393150	0.226289
-3.604829	6.844476	0.139755
-3.629345	6.323175	0.063243
-3.626825	6.930709	0.427749
-3.634749	6.376280	0.331745
-3.559381	8.212670	0.332748
-3.594843	7.533034	0.230232
-3.613458	6.912211	0.140911
-3.637655	6.382931	0.063729
-3.641444	7.010920	0.432008
-3.627472	6.409136	0.332874
-3.566128	8.297917	0.335757
-3.587114	7.576552	0.231225
-3.586709	6.912615	0.140694
-3.636769	6.427132	0.064059
-3.665213	7.109923	0.437414
-3.648900	6.493390	0.336666
-3.558675	8.351108	0.337466
-3.574052	7.609236	0.231886
-3.602563	6.995587	0.142157
-3.634666	6.469645	0.064371
-3.651569	7.137135	0.438397
-3.653298	6.548174	0.338924
-3.543927	8.387761	0.338506
-3.554490	7.628321	0.232135
-3.612481	7.068036	0.143404
-3.633797	6.514824	0.064709
-3.635080	7.158988	0.439052
-3.651584	6.592559	0.340640
-3.538254	8.446523	0.340438
-3.565463	7.713594	0.234396
-3.610681	7.118320	0.144198
-3.623481	6.543438	0.064883
-3.629276	7.202207	0.441017
-3.649152	6.636119	0.342311
-3.530338	8.500715	0.342184
-3.571778	7.789920	0.236381
-3.597816	7.147225	0.144560
-3.611097	6.568544	0.065022
-3.637978	7.274930	0.444785
-3.644571	6.676219	0.343801
-3.544188	8.608531	0.346085
-3.563174	7.834509	0.237401
-3.586149	7.178802	0.144975
-3.597155	6.591002	0.065134
-3.622299	7.299473	0.445604
-3.643111	6.722501	0.345607
-3.543060	8.681354	0.348574
-3.562140	7.896431	0.238945
-3.610735	7.283830	0.146872
-3.595019	6.635417	0.065464
-3.615767	7.342800	0.447570
-3.630988	6.749482	0.346420
-3.583117	8.857078	0.355186
-3.579539	8.000392	0.241757
-3.601611	7.321788	0.147414
-3.623431	6.737125	0.066357
-3.604182	7.376287	0.448935
-3.634263	6.805531	0.348723
-3.594235	8.963564	0.359013
-3.563086	8.029611	0.242309
-3.583955	7.342687	0.147612
-3.619699	6.779966	0.066670
-3.618561	7.463681	0.453576
-3.645183	6.876668	0.351793
-3.557123	8.950404	0.358047
-3.560983	8.091741	0.243853
-3.570563	7.372545	0.147992
-3.613865	6.819313	0.066947
-3.609064	7.502642	0.455268
-3.643605	6.924950	0.353689
-4.917993	12.486092	0.498881
-3.563730	8.165844	0.245756
-3.565683	7.420414	0.148732
-3.597582	6.839217	0.067034
-3.589900	7.521789	0.455760
-3.593208	6.880310	0.350845
-3.552160	8.207930	0.246693
-3.579904	7.508934	0.150286
-3.596946	6.889225	0.067416
-3.596719	7.595939	0.459582
-3.633227	7.009261	0.356850
-3.546277	8.263801	0.248044
-3.555140	7.516267	0.150213
-3.602018	6.950834	0.067910
-3.627740	7.722619	0.466571
-3.625415	7.047024	0.358205
-4.599722	12.000817	0.477780
-3.546739	8.335350	0.249864
-3.587279	7.644807	0.152562
-3.600800	7.000979	0.068292
-3.625962	7.780775	0.469410
-3.616498	7.083025	0.359469
-4.546207	11.970964	0.476034
-3.530087	8.367375	0.250498
-3.566762	7.662121	0.152688
-3.591579	7.036040	0.068526
-3.602493	7.792769	0.469465
-3.614167	7.132405	0.361411
-4.440132	11.800603	0.468715
-3.534872	8.451019	0.252676
-3.567550	7.725676	0.153736
-3.597994	7.102332	0.069064
-3.624351	7.903624	0.475471
-3.616953	7.192546	0.363894
-4.414379	11.842260	0.469830
-3.525776	8.502453	0.253890
-3.548411	7.746584	0.153934
-3.582925	7.126738	0.069194
-3.617036	7.951971	0.477710
-3.627878	7.269754	0.367236
-4.357602	11.800439	0.467638
-3.504615	8.525249	0.254248
-3.563919	7.843911	0.155650
-3.592292	7.200332	0.069801
-3.598372	7.975772	0.478474
-3.613981	7.297859	0.368093
-4.318976	11.807183	0.467378
-3.574638	8.772016	0.261279
-3.566540	7.914059	0.156824
-3.609227	7.290180	0.070564
-3.602842	8.051486	0.482351
-3.606114	7.338500	0.369584
-4.261626	11.762127	0.465075
-3.587019	8.880263	0.264174
-3.573251	7.994336	0.158197
-3.595222	7.318271	0.070729
-3.589870	8.088968	0.483934
-3.601533	7.386343	0.371435
-4.199868	11.703661	0.462251
-3.588367	8.962682	0.266297
-3.565321	8.042737	0.158938
-3.589841	7.364322	0.071068
-3.612500	8.207785	0.490377
-3.598433	7.437825	0.373467
-4.178666	11.757922	0.463886
-3.559378	8.969932	0.266187
-3.551896	8.079266	0.159444
-3.599015	7.441015	0.071701
-3.600084	8.248113	0.492125
-3.605427	7.510971	0.376582
-4.123000	11.715071	0.461694
-3.678534	8.437486	0.166290
-3.594340	7.489886	0.072065
-3.590627	8.295774	0.494309
-3.617588	7.595954	0.380285
-4.084079	11.719172	0.461360
-4.348217	11.157076	0.330293
-3.767296	8.713959	0.171510
-3.594987	7.550535	0.072542
-3.577761	8.336113	0.496056
-3.607924	7.635920	0.381730
-3.976069	11.522879	0.453150
-4.357182	11.282264	0.333602
-3.741726	8.728233	0.171564
-3.585046	7.589557	0.072811
-3.586968	8.428821	0.500915
-3.617552	7.717508	0.385252
-3.940375	11.534077	0.453113
-4.318976	11.286243	0.333326
-3.736834	8.791201	0.172576
-3.578717	7.636740	0.073158
-3.589428	8.506943	0.504901
-3.605231	7.753027	0.386471
-3.899848	11.530966	0.452518
-4.283266	11.296636	0.333244
-3.715281	8.815523	0.172828
-3.593631	7.730199	0.073947
-3.555220	8.498571	0.503755
-3.583102	7.767680	0.386652
-3.869212	11.557090	0.453075
-4.241207	11.290072	0.332665
-3.690531	8.832414	0.172937
-3.566548	7.733923	0.073878
-3.586508	8.647789	0.511945
-3.581284	7.826781	0.389045
-3.854484	11.631513	0.455527
-4.189814	11.258062	0.331341
-3.651172	8.814137	0.172359
-3.563187	7.789386	0.074303
-3.603245	8.764030	0.518170
-3.595239	7.921421	0.393199
-3.821895	11.652779	0.455899
-4.151105	11.259609	0.331010
-3.541695	8.624596	0.168439
-3.581417	7.893163	0.075188
-3.580109	8.784291	0.518716
-3.589783	7.974317	0.395276
-3.785202	11.661598	0.455787
-4.113113	11.262902	0.330735
-3.541983	8.701171	0.169722
-3.575240	7.944237	0.075569
-3.627945	8.980395	0.529636
-3.584850	8.029078	0.397443
-3.748795	11.671253	0.455713
-4.067658	11.245387	0.329852
-3.584110	8.882601	0.173045
-3.562671	7.981648	0.075821
-3.599263	8.988703	0.529472
-3.560605	8.040952	0.397489
-3.714787	11.688413	0.455936
-4.027071	11.240874	0.329356
-3.576520	8.942757	0.174003
-3.554358	8.029116	0.076168
-3.588538	8.171659	0.403404
-3.679509	11.701662	0.456010
-3.992565	11.253176	0.329356
-3.577067	9.024329	0.175375
-3.642260	8.296354	0.078597
-3.606528	8.281547	0.408280
-3.639139	11.698582	0.455453
-3.953383	11.252168	0.328970
-4.367520	11.117958	0.215801
-3.570488	8.201135	0.077591
-3.592193	8.318253	0.409545
-3.605289	11.716378	0.455713
-3.917530	11.260468	0.328860
-4.333028	11.130373	0.215783
-3.590890	8.317628	0.078588
-3.581992	8.365049	0.411306
-3.558561	11.692011	0.454339
-3.884267	11.276214	0.328970
-4.295981	11.136152	0.215638
-3.574406	8.349749	0.078788
-3.570757	8.410021	0.412976
-3.529874	11.726796	0.455267
-3.844168	11.271994	0.328501
-4.257512	11.138073	0.215421
-3.671844	8.650625	0.081520
-3.575559	8.493674	0.416543
-3.494736	11.740444	0.455379
-3.806051	11.273317	0.328198
-4.219779	11.141732	0.215241
-3.717045	8.832358	0.083125
-3.566798	8.546090	0.418575
-3.449953	11.721392	0.454227
-3.763843	11.262187	0.327536
-4.183118	11.148073	0.215114
-3.687235	8.837261	0.083064
-3.581430	8.655762	0.423407
-3.421236	11.756869	0.455193
-3.713262	11.225280	0.326130
-4.145762	11.152420	0.214952
-3.636408	8.791241	0.082526
-3.557132	8.672254	0.423678
-3.373547	11.726974	0.453633
-4.099088	11.131309	0.214302
-3.580587	8.732041	0.081867
-3.570770	8.782146	0.428509
-3.338100	11.739192	0.453707
-3.648937	11.262117	0.326544
-4.063891	11.141015	0.214247
-3.553027	8.741132	0.081850
-3.603184	8.940383	0.435689
-3.298554	11.736870	0.453224
-3.616504	11.279922	0.326737
-4.026294	11.144026	0.214067
-3.567300	8.854017	0.082804
-3.280982	11.813373	0.455787
-3.586415	11.305257	0.327150
-3.989391	11.148795	0.213922
-3.590184	8.990288	0.083975
-3.272492	11.924569	0.459688
-3.558000	11.336235	0.327729
-3.948155	11.141192	0.213543
-3.291333	12.139024	0.467564
-3.484670	11.222992	0.324145
-3.907665	11.135327	0.213200
-3.263383	12.183815	0.468901
-3.493365	11.374097	0.328198
-3.871515	11.141597	0.213091
-3.244646	12.264293	0.471613
-3.464845	11.405803	0.328805
-3.813570	11.084404	0.211773
-3.240097	12.400848	0.476480
-3.429261	11.414465	0.328749
-3.771163	11.071445	0.211303
-4.748147	12.552271	0.606596
-3.240483	12.559743	0.482201
-3.395934	11.430682	0.328915
-3.740374	11.092436	0.211484
-4.675960	12.476976	0.602261
-3.360004	11.438169	0.328832
-3.696511	11.074459	0.210924
-4.677297	12.598026	0.607408
-3.316811	11.420585	0.328032
-3.685101	11.154102	0.212224
-4.629659	12.587939	0.606234
-3.294999	11.476826	0.329356
-3.654592	11.176759	0.212441
-3.273690	11.535925	0.330762
-3.622440	11.194578	0.212567
-3.244222	11.567089	0.331369
-3.587773	11.204686	0.212549
-3.273697	13.728320	0.524663
-3.219399	11.615520	0.332472
-3.552173	11.211828	0.212477
-4.733475	13.374595	0.641274
-3.183220	11.623413	0.332417
-3.502208	11.173062	0.211538
-4.481638	14.431564	0.826341
-4.692751	13.389996	0.641319
-3.177569	11.744092	0.335587
-3.482720	11.231502	0.212441
-4.464023	14.532104	0.831310
-4.658199	13.423207	0.642222
-3.260633	14.253709	0.543572
-3.155204	11.804968	0.337049
-3.461439	11.285149	0.213254
-4.399969	14.481720	0.827652
-4.621540	13.450661	0.642854
-3.185056	12.064918	0.344190
-3.484852	11.487071	0.216866
-4.356956	14.499933	0.827925
-3.172993	12.170394	0.346920
-3.434941	11.448868	0.215945
-4.323542	14.550560	0.830054
-3.185981	12.375618	0.352490
-3.390415	11.427721	0.215349
-4.292392	14.609740	0.832675
-3.170161	12.472528	0.354971
-3.304962	11.266334	0.212116
-4.245879	14.617087	0.832347
-3.187103	12.702287	0.361230
-3.292383	11.352282	0.213543
-4.202116	14.633884	0.832566
-3.154125	12.736262	0.361919
-3.274072	11.419997	0.214627
-4.164016	14.670721	0.833931
-3.168670	12.965334	0.368151
-3.245563	11.453075	0.215060
-4.081231	14.548831	0.826287
-3.175511	13.168376	0.373638
-3.217151	11.487047	0.215512
-4.578426	14.471523	0.686066
-3.152911	13.252937	0.375761
-3.181361	11.494936	0.215476
-4.554596	14.551284	0.689182
-3.154714	13.443560	0.380889
-3.147662	11.510429	0.215584
-4.554550	14.709284	0.696000
-3.182647	13.752156	0.389354
-3.157788	13.837871	0.391505
-3.172364	14.101058	0.398674
-3.166974	12.014583	0.224471
-3.146401	14.188798	0.400880
-3.182238	12.224534	0.228210
-3.119288	14.273580	0.403003
-3.176828	12.359158	0.230540
-5.783132	32.556508	1.229240
-3.169146	12.488048	0.232762
-3.154871	12.593728	0.234550
-3.173096	12.833382	0.238831
-3.159306	12.947961	0.240782
-3.387272	14.043694	0.789977
-3.159118	13.121872	0.243835
-3.159740	13.303684	0.247032
-3.164521	13.508011	0.250645
-3.154349	13.653066	0.253155
-3.156419	13.855702	0.256732
-3.146540	14.010676	0.259423
-3.144598	14.205742	0.262855
-3.139734	14.607954	0.269936
-0.397876	6.985006	0.773885
-0.374145	6.943517	0.769158
-0.352286	6.933713	0.767948
-0.331959	6.954617	0.770147
-0.308005	6.897019	0.763660
-0.288455	6.936662	0.767948
-0.265451	6.892820	0.763001
-0.244619	6.902542	0.763990
-0.223795	6.914187	0.765200
-0.201912	6.891990	0.762671
-0.181210	6.909468	0.764540
-0.438299	7.012821	0.707160
-0.159505	6.888131	0.762121
-0.419909	7.066774	0.712467
-0.138232	6.881632	0.761352
-0.398115	7.066042	0.712267
-0.116510	6.846247	0.757394
-0.372360	6.990726	0.704557
-0.095505	6.846573	0.757394
-0.349066	6.955068	0.700852
-0.099918	7.394231	0.545513
-0.082006	6.213167	0.230996
-0.080066	6.239485	0.004247
-0.074478	6.844846	0.757174
-0.326602	6.932252	0.698448
-0.068827	6.589734	0.486143
-0.057619	5.687779	0.211455
-0.060796	6.226702	0.004239
-0.053237	6.814231	0.753766
-0.303932	6.901414	0.695244
-0.045564	6.177047	0.455686
-0.039950	5.656951	0.210303
-0.039738	5.934866	0.004040
-0.032313	6.810386	0.753326
-0.282228	6.889390	0.693942
-0.025878	6.006623	0.443106
-0.011272	6.722987	0.743651
-0.260940	6.886246	0.693542
-0.006969	5.618728	0.414487
-0.005157	5.568151	0.206997
0.009209	6.618626	0.732107
-0.240262	6.899941	0.694843
0.010246	5.605758	0.413531
0.011885	5.549154	0.206291
-0.217387	6.846944	0.689436
0.027405	5.597722	0.412942
0.029004	5.567079	0.206960
0.029605	5.308916	0.003614
0.049408	6.563780	0.726060
-0.197663	6.892334	0.693942
0.044507	5.588637	0.412280
0.045951	5.550975	0.206366
0.068998	6.511916	0.720343
0.061674	5.590468	0.412427
0.063026	5.554805	0.206514
0.065142	5.561617	0.003786
0.087889	6.432166	0.711548
-0.407919	6.896242	0.630406
0.077953	5.528427	0.407866
0.080197	5.563579	0.206848
0.080194	5.425406	0.003693
0.106359	6.356338	0.703192
-0.396238	7.066493	0.645855
0.095342	5.553091	0.409705
0.096846	5.539326	0.205957
0.096125	5.385141	0.003666
0.125505	6.338094	0.701213
-0.367389	6.932427	0.633496
0.111430	5.505909	0.406248
0.114169	5.554989	0.206551
0.111077	5.309837	0.003615
0.143995	6.295945	0.696596
-0.344629	6.903683	0.630770
0.127926	5.488592	0.404997
-0.092200	6.989013	0.448569
0.131541	5.568599	0.207071
-0.078964	6.233129	0.171943
0.130005	5.419440	0.003690
0.162795	6.275601	0.694397
-0.323867	6.913661	0.631588
0.143844	5.453280	0.402422
-0.061797	6.104129	0.391761
0.146358	5.483258	0.203914
-0.053959	5.620603	0.155041
0.146415	5.411018	0.003685
0.180462	6.220428	0.688350
-0.302959	6.921586	0.632224
0.160016	5.433873	0.401024
-0.041873	5.934643	0.380873
0.165053	5.545712	0.206254
-0.036329	5.561766	0.153415
0.160546	5.328581	0.003629
-0.037731	5.967640	-0.053538
0.198621	6.191036	0.685162
-0.028383	6.877200	0.692140
-0.280913	6.902583	0.630406
0.177269	5.451298	0.402348
-0.022997	5.767090	0.370114
0.179869	5.478262	0.203765
-0.019391	5.597837	0.154407
0.177523	5.347053	0.003642
-0.260504	6.856949	0.879272
0.216775	6.166558	0.682523
-0.007003	6.611597	0.665403
-0.259398	6.894456	0.629588
0.193425	5.434782	0.401171
-0.005287	5.749170	0.368961
0.197572	5.502651	0.204694
-0.002196	5.546890	0.153001
0.194289	5.356476	0.003648
-0.239465	6.857715	0.879272
0.232694	6.087400	0.673837
0.013295	6.618552	0.666104
-0.238176	6.893228	0.629407
0.209636	5.422204	0.400288
0.012086	5.625414	0.361020
0.211650	5.430123	0.202019
0.014797	5.537874	0.152753
0.209739	5.330874	0.003631
-0.218899	6.873288	0.881179
0.250836	6.073747	0.672408
0.031959	6.295118	0.633560
-0.215711	6.852121	0.625590
0.226561	5.428511	0.400803
0.029802	5.713169	0.366655
0.225286	5.357562	0.199344
0.031718	5.525807	0.152422
0.227576	5.365174	0.003655
0.032006	5.379688	-0.048263
-0.197468	6.862030	0.879654
0.269160	6.065998	0.671639
-0.193330	6.804968	0.621228
0.242679	5.415835	0.399921
0.047545	5.738996	0.368321
0.241992	5.362835	0.199567
0.244308	5.370445	0.003659
-0.172528	6.808516	0.621500
0.257910	5.386176	0.397787
0.065299	5.751796	0.369153
0.258299	5.359073	0.199456
0.066419	5.592478	0.154269
0.257969	5.311738	0.003620
0.065824	5.446383	-0.048864
-0.411136	6.969976	0.827868
0.302764	5.992760	0.663723
0.084426	5.911531	0.595008
-0.151439	6.800053	0.620682
0.273926	5.375400	0.397051
0.081851	5.675732	0.364286
0.274893	5.361249	0.199567
0.083576	5.592248	0.154269
0.273852	5.302932	0.003614
0.082079	5.416160	-0.048595
-0.387534	6.931545	0.823158
0.320404	5.977908	0.662184
0.099990	5.763015	0.580088
-0.130805	6.812434	0.621773
0.290631	5.378517	0.397346
0.098723	5.644523	0.362300
0.290852	5.351400	0.199233
0.102461	5.687913	0.156916
0.289355	5.288088	0.003605
0.098513	5.405885	-0.048506
-0.366790	6.942618	0.824335
0.337898	5.962012	0.660534
0.120352	5.893991	0.593306
-0.110001	6.818777	0.622318
0.304742	5.335783	0.394256
0.116901	5.686099	0.364990
-0.156455	9.912953	0.542140
0.306466	5.336515	0.198713
0.119236	5.655592	0.156034
-0.097749	6.362211	0.114954
0.305404	5.284181	0.003603
0.115608	5.429551	-0.048721
0.156206	6.740427	0.929447
-0.344205	6.917923	0.821274
0.356069	5.958962	0.660315
-0.089003	6.813108	0.621773
0.321590	5.342787	0.394844
0.136184	5.763531	0.369986
0.322052	5.322582	0.198230
0.137769	5.704166	0.157385
-0.076901	6.254507	0.113003
0.322829	5.303182	0.003616
0.132119	5.423173	-0.048667
-0.322378	6.906051	0.819743
0.373477	5.943954	0.658775
-0.067921	6.795424	0.620137
0.336154	5.312911	0.392711
0.154238	5.777053	0.370882
0.338824	5.328550	0.198490
0.153066	5.622778	0.155152
0.339098	5.302166	0.003616
0.149305	5.442733	-0.048846
0.198868	6.783902	0.935592
-0.301708	6.918912	0.821156
0.391515	5.939805	0.658446
-0.045838	6.617345	0.603870
0.352386	5.310860	0.392637
0.172021	5.778547	0.371011
0.352844	5.292588	0.197190
0.172737	5.702214	0.157357
0.351818	5.248220	0.003580
0.165118	5.413264	-0.048586
0.222565	6.872370	0.947883
-0.279515	6.895992	0.818330
0.408984	5.927669	0.657236
0.184574	5.644454	0.568372
-0.024268	6.288823	0.573881
0.368402	5.305774	0.392343
0.189519	5.771010	0.370562
-0.019895	5.668496	0.309974
0.368245	5.279517	0.196744
0.190063	5.696662	0.157220
0.365540	5.213199	0.003557
0.183806	5.474695	-0.049142
-0.258431	6.898802	0.818566
0.426882	5.922421	0.656796
0.201783	5.640878	0.568071
-0.004722	5.970192	0.544801
0.383235	5.284725	0.390872
0.206185	5.741480	0.368705
-0.002520	5.704477	0.311939
0.385094	5.287333	0.197078
0.200697	5.508248	0.152036
0.382189	5.221029	0.003563
0.197232	5.382171	-0.048317
-0.236548	6.878721	0.816093
0.444379	5.912163	0.655807
0.218972	5.637250	0.567771
0.013275	5.829762	0.531988
0.400274	5.294463	0.391681
0.211631	5.428700	0.348659
0.014530	5.532715	0.302548
0.396321	5.220361	0.194626
0.213175	5.395737	0.148948
0.016690	5.481080	0.099022
0.398433	5.222823	0.003565
0.214140	5.391532	-0.048407
-0.213547	6.818868	0.808911
0.462515	5.910772	0.655807
0.234391	5.591817	0.563265
0.031022	5.803802	0.529625
0.415341	5.278297	0.390577
0.226733	5.391134	0.346289
0.030981	5.440783	0.297524
0.415011	5.252992	0.195889
0.230876	5.422023	0.149692
0.033047	5.406017	0.097668
0.413742	5.212604	0.003559
0.230765	5.392848	-0.048425
-0.194420	6.883020	0.816446
0.481614	5.921213	0.657126
0.246447	5.477759	0.551849
0.048736	5.792726	0.528625
0.434541	5.313775	0.393299
0.243452	5.394401	0.346545
0.048898	5.580448	0.305169
0.433087	5.275597	0.196781
0.243543	5.334413	0.147293
0.051147	5.570856	0.100648
0.427678	5.186395	0.003542
0.245523	5.353157	-0.048075
0.075295	6.774190	0.868088
0.507638	6.012807	0.667461
0.263968	5.491885	0.553351
0.066233	5.768650	0.526444
0.450757	5.311423	0.393226
0.260577	5.405590	0.347314
0.066880	5.653158	0.309154
0.450712	5.291170	0.197412
0.260200	5.339631	0.147459
0.067185	5.484694	0.099095
0.443161	5.180077	0.003539
0.262678	5.367360	-0.048209
0.094403	6.655904	0.852963
0.531281	6.070630	0.674057
0.281578	5.505954	0.554853
0.081438	5.597149	0.510814
0.467574	5.315976	0.393667
0.276342	5.388819	0.346289
0.084551	5.674891	0.310356
0.467822	5.299717	0.197784
0.277666	5.359771	0.148038
0.085099	5.555442	0.100377
0.459228	5.180685	0.003540
0.278312	5.350551	-0.048066
0.548199	6.050164	0.671968
0.297822	5.493142	0.553652
0.098312	5.579946	0.509269
0.482253	5.296639	0.392343
0.292115	5.373995	0.345393
0.102051	5.679597	0.310629
0.484261	5.300247	0.197858
0.292794	5.334939	0.147376
0.102675	5.584145	0.100901
0.473110	5.157344	0.003525
0.292691	5.312729	-0.047734
0.564904	6.028661	0.669770
0.313934	5.479289	0.552350
0.115389	5.577627	0.509087
0.498688	5.297120	0.392490
0.306827	5.342188	0.343407
0.119307	5.671270	0.310192
-0.088931	5.946263	0.268800
0.501647	5.310675	0.198304
0.307540	5.306074	0.146604
0.119442	5.566810	0.100594
-0.096577	6.503038	0.056417
0.487043	5.135957	0.003512
0.302485	5.200000	-0.046729
0.583014	6.022942	0.669330
0.329843	5.463403	0.550848
0.132287	5.568286	0.508269
-0.088090	7.097759	0.580469
0.515709	5.303507	0.393079
0.322010	5.321299	0.342126
0.136465	5.660896	0.309646
-0.069002	5.804663	0.262389
0.517161	5.301154	0.198007
0.323574	5.301114	0.146494
0.137109	5.590406	0.101027
-0.073327	6.223334	0.053988
0.512348	5.231973	0.003578
0.313852	5.124191	-0.046056
0.600600	6.012225	0.668340
0.336711	5.306468	0.535127
0.150599	5.613647	0.512449
-0.060160	6.439224	0.526595
0.531281	5.294953	0.392564
0.337637	5.309331	0.341422
0.151173	5.562632	0.304295
-0.049740	5.640022	0.254938
0.534023	5.305509	0.198230
0.339388	5.293113	0.146301
0.155252	5.625940	0.101678
-0.050104	5.749566	0.049877
0.521060	5.157746	0.003529
0.331947	5.160126	-0.046388
0.618329	6.003433	0.667571
0.359198	5.398731	0.544539
0.165499	5.535516	0.505361
-0.038566	6.146362	0.502633
0.546599	5.284371	0.391902
0.351601	5.273419	0.339180
0.167755	5.546174	0.303421
-0.032269	5.611178	0.253629
0.550401	5.304839	0.198267
0.355358	5.288058	0.146190
0.172787	5.634432	0.101840
-0.031222	5.529704	0.047968
0.537192	5.159107	0.003531
0.342059	5.074279	-0.045626
0.636640	6.000519	0.667461
0.374378	5.377752	0.542537
0.179495	5.444408	0.497091
-0.019101	5.957084	0.487147
0.563232	5.286635	0.392196
0.367708	5.271320	0.339116
0.184903	5.549625	0.303640
-0.015213	5.670190	0.256293
0.566886	5.305113	0.198341
0.371089	5.279962	0.145997
0.189870	5.627879	0.101732
0.556002	5.185275	0.003550
0.366274	5.195896	-0.046729
-0.004100	6.536213	0.775000
0.653104	5.980752	0.665482
-0.000785	5.667083	0.463430
0.580100	5.290831	0.392637
0.198914	5.466210	0.299108
0.583050	5.302355	0.198304
0.387213	5.277802	0.145970
0.200405	5.444424	0.098426
0.274040	7.072820	0.906980
0.016409	6.722887	0.797136
0.669342	5.959954	0.663393
0.594207	5.270197	0.391239
0.399441	5.261004	0.338604
0.212258	5.378771	0.294357
0.599202	5.299548	0.198267
0.403632	5.279580	0.146053
0.219219	5.496733	0.099384
0.687738	5.958859	0.663503
0.610487	5.269340	0.391313
0.416680	5.273682	0.339501
0.036304	5.567198	0.251642
0.614997	5.293715	0.198118
0.420065	5.281306	0.146135
0.232821	5.420117	0.098011
0.056833	6.626337	0.785715
0.703442	5.935007	0.661084
0.626886	5.269423	0.391460
0.053882	5.619004	0.253990
0.633484	5.310656	0.198824
0.436266	5.279992	0.146135
0.076919	6.605280	0.783242
0.721407	5.930848	0.660864
0.643170	5.268464	0.391534
0.071348	5.636793	0.254803
0.650623	5.315631	0.199084
0.452719	5.281617	0.146218
0.097271	6.610970	0.783949
0.738369	5.918743	0.659765
0.659207	5.265477	0.391460
0.089678	5.702472	0.257783
0.666431	5.309644	0.198936
0.468655	5.277216	0.146135
0.116953	6.576882	0.779945
0.755390	5.907577	0.658775
0.675612	5.265408	0.391607
0.106703	5.677200	0.256654
0.681697	5.299645	0.198638
0.485118	5.278740	0.146218
0.135639	6.505009	0.771468
0.774285	5.911145	0.659435
0.693322	5.275176	0.392490
0.124295	5.684836	0.257015
0.696909	5.289603	0.198341
0.501499	5.279216	0.146273
0.335439	5.750284	0.104062
0.156261	6.532359	0.774765
0.792416	5.908742	0.659435
0.510646	5.241581	0.530020
0.323106	5.328034	0.487095
0.134936	5.527896	0.452182
0.710434	5.279943	0.393005
0.523080	5.361462	0.345713
0.324370	5.318157	0.291354
0.141411	5.671445	0.256428
0.713000	5.286449	0.198304
0.519157	5.292576	0.146687
0.357553	5.822079	0.105381
0.135162	5.398105	0.046841
0.708730	5.240289	0.003599
0.506062	5.147978	-0.046406
0.175819	6.513981	0.772645
0.811216	5.911206	0.659985
0.531501	5.287509	0.534826
0.150471	5.475648	0.447944
0.726221	5.274774	0.392784
0.541725	5.381676	0.347122
0.339471	5.298204	0.290317
0.157524	5.625049	0.254351
0.729489	5.286217	0.198378
0.534587	5.283002	0.146466
0.342145	5.305111	0.096042
0.149446	5.316700	0.046138
0.722063	5.218279	0.003586
0.527301	5.200124	-0.046891
0.195713	6.510433	0.772292
0.829762	5.911642	0.660315
0.541567	5.226473	0.528818
0.742122	5.270546	0.392637
0.555659	5.355174	0.345521
0.354252	5.275220	0.289116
0.173229	5.574615	0.252093
0.745564	5.282965	0.198341
0.550585	5.279348	0.146411
0.357071	5.284085	0.095681
0.165227	5.299225	0.045990
0.734286	5.189306	0.003567
0.539199	5.159694	-0.046541
0.216146	6.523697	0.773940
0.847895	5.909069	0.660315
0.570375	5.344498	0.540934
0.183497	5.457688	0.446558
0.757010	5.259361	0.391975
0.558937	5.230399	0.337579
0.368616	5.248211	0.287696
0.187843	5.501174	0.248797
0.761483	5.278675	0.198267
0.566993	5.279622	0.146466
0.376381	5.326848	0.096475
0.188467	5.502566	0.047760
0.745050	5.151399	0.003543
0.554384	5.152050	-0.046487
0.650645	8.961944	1.151392
0.234830	6.486285	0.769584
0.865731	5.904473	0.660095
0.585900	5.334811	0.540133
0.388247	5.320688	0.486822
0.199363	5.433195	0.444602
0.772271	5.251094	0.391534
0.575308	5.231635	0.337771
0.385665	5.260001	0.288406
0.203159	5.458644	0.246901
0.776217	5.266427	0.197895
0.584176	5.286800	0.146714
0.390810	5.299743	0.096006
0.200164	5.363064	0.046554
0.766113	5.184703	0.003567
0.571398	5.161258	-0.046586
0.255820	6.513318	0.772881
0.883694	5.900806	0.659985
0.607847	5.382423	0.545140
0.213179	5.360854	0.438734
0.788526	5.249686	0.391607
0.594383	5.256619	0.339501
0.399899	5.233903	0.287041
0.217532	5.399103	0.244237
0.790883	5.254139	0.197524
0.600619	5.286969	0.146770
0.408140	5.312476	0.096259
0.212863	5.269504	0.045748
0.779330	5.164529	0.003555
0.588700	5.172397	-0.046702
0.275927	6.515479	0.773234
0.901493	5.896102	0.659765
0.626422	5.398323	0.546943
0.228473	5.333289	0.436533
0.804628	5.247242	0.391607
0.611659	5.264684	0.340141
0.418011	5.258531	0.288460
0.232407	5.359486	0.242476
0.805784	5.243786	0.197227
0.616836	5.285102	0.146770
0.426030	5.331131	0.096620
0.234196	5.387710	0.046780
0.792431	5.144323	0.003543
0.604566	5.170566	-0.046702
0.296276	6.522538	0.774176
0.919118	5.890362	0.659435
0.639449	5.366736	0.543939
0.433936	5.277189	0.483187
0.248309	5.408231	0.442728
0.820723	5.244748	0.391607
0.629108	5.273683	0.340845
0.435128	5.269165	0.289116
0.248524	5.351762	0.242160
0.810258	5.167246	0.194441
0.633880	5.290132	0.146963
0.442301	5.328803	0.096602
0.248911	5.348009	0.046442
0.808209	5.141868	0.003543
0.619354	5.159752	-0.046622
0.316333	6.522590	0.774294
0.937654	5.890460	0.659765
0.655669	5.362774	0.543738
0.260413	5.315859	0.435229
0.836023	5.237282	0.391239
0.653408	5.338095	0.345136
0.452144	5.277754	0.289662
0.264448	5.340997	0.241708
0.828948	5.182498	0.195109
0.649131	5.280225	0.146742
0.459848	5.341367	0.096855
0.264723	5.335235	0.046337
0.823506	5.136403	0.003541
0.633714	5.145918	-0.046514
0.333121	6.459110	0.766876
0.956199	5.890499	0.660095
0.675708	5.389367	0.546642
0.463765	5.245659	0.480552
0.277602	5.331956	0.436615
0.851126	5.228786	0.390798
0.658721	5.247940	0.339437
0.469040	5.284299	0.290099
0.280623	5.336171	0.241527
0.845970	5.186834	0.195369
0.664077	5.268291	0.146466
0.477476	5.353874	0.097108
0.276354	5.244526	0.045557
0.839744	5.136812	0.003543
0.650250	5.149902	-0.046568
0.584142	6.409812	0.824747
0.351906	6.439218	0.764638
0.976051	5.898324	0.661304
0.688562	5.358650	0.543738
0.476227	5.204543	0.476917
0.292532	5.305205	0.434496
0.867163	5.226151	0.390798
0.669471	5.204323	0.336747
0.484976	5.279852	0.289935
0.296548	5.327305	0.241166
0.865320	5.204916	0.196149
0.679597	5.261272	0.146328
0.502260	5.442984	0.098751
0.288100	5.165778	0.044880
0.856486	5.140130	0.003547
0.667971	5.162758	-0.046702
0.375208	6.499574	0.771939
0.994143	5.895302	0.661304
0.697728	5.301270	0.538131
0.495193	5.234783	0.479825
0.307764	5.286373	0.433029
0.883193	5.223466	0.390798
0.686607	5.211149	0.337323
0.502116	5.288279	0.290481
0.312832	5.325373	0.241121
0.881952	5.206177	0.196298
0.694817	5.252226	0.146135
0.520380	5.456347	0.099022
0.311348	5.290647	0.045973
0.878612	5.174942	0.003573
0.684464	5.165641	-0.046747
0.395026	6.496410	0.771703
1.012393	5.893204	0.661414
0.720632	5.348408	0.543137
0.510282	5.223328	0.478916
0.328249	5.355040	0.438734
0.901753	5.235474	0.391902
0.705793	5.232754	0.338860
0.518435	5.287708	0.290535
0.326827	5.286499	0.239405
0.897920	5.203447	0.196298
0.710794	5.249079	0.146108
0.537509	5.458705	0.099095
0.325230	5.251741	0.045644
0.894996	5.175179	0.003575
0.701115	5.169462	-0.046801
0.413498	6.472374	0.768995
1.030982	5.893007	0.661744
0.734184	5.325473	0.541035
0.526305	5.221737	0.478916
0.344933	5.357986	0.439060
0.920913	5.250364	0.393226
0.725936	5.260221	0.340781
0.533148	5.271191	0.289716
0.341232	5.257559	0.238141
0.914053	5.201652	0.196335
0.728403	5.257765	0.146411
0.554759	5.462004	0.099185
0.337189	5.186856	0.045088
0.902197	5.123166	0.003541
0.718346	5.177191	-0.046891
0.519940	5.099709	-0.093594
0.430898	6.434415	0.764638
1.051148	5.901559	0.663063
0.749269	5.314328	0.540133
0.533369	5.133922	0.471010
0.356070	5.278344	0.432621
0.936490	5.244568	0.393005
0.740537	5.247100	0.340077
0.549214	5.268537	0.289662
0.358919	5.279411	0.239179
0.930007	5.198823	0.196335
0.743268	5.246598	0.146163
0.572554	5.470220	0.099366
0.355478	5.220715	0.045392
0.919322	5.128249	0.003546
0.736333	5.189814	-0.047025
0.454176	6.483584	0.770644
1.071199	5.909064	0.664272
0.771104	5.350412	0.544039
0.556534	5.201576	0.477371
0.376049	5.330914	0.437023
0.952041	5.238727	0.392784
0.759054	5.261594	0.341166
0.565588	5.268813	0.289771
0.371998	5.234440	0.237193
0.944342	5.187097	0.196001
0.760507	5.252207	0.146384
0.589334	5.468438	0.099366
0.372345	5.231569	0.045496
0.941512	5.160820	0.003571
0.751821	5.184561	-0.046998
0.472254	6.457400	0.767700
1.090585	5.912592	0.665042
0.781138	5.304709	0.539633
0.392476	5.330729	0.437104
0.966295	5.225975	0.392049
0.770536	5.227648	0.339116
0.581859	5.268045	0.289825
0.385470	5.198406	0.235612
0.958977	5.177298	0.195741
0.777056	5.252816	0.146466
0.605006	5.456667	0.099185
0.386024	5.198491	0.045218
0.951501	5.126444	0.003549
0.760543	5.133761	-0.046559
0.490931	6.441068	0.765934
1.114951	5.942433	0.668780
0.803919	5.345580	0.544039
0.586311	5.179262	0.475645
0.404788	5.276831	0.432784
0.982693	5.224946	0.392196
0.795632	5.285455	0.343023
0.598357	5.269212	0.289989
0.400955	5.191223	0.235341
0.981147	5.207720	0.197004
0.792720	5.247442	0.146384
0.621065	5.448824	0.099077
0.405826	5.247132	0.045652
0.975201	5.165754	0.003578
0.782123	5.169964	-0.046909
0.512731	6.465270	0.768995
1.133922	5.942890	0.669220
0.816541	5.318502	0.541535
0.420658	5.271590	0.432458
1.003027	5.244436	0.393888
0.803356	5.227753	0.339437
0.614867	5.270327	0.290153
0.421359	5.245731	0.237870
0.996743	5.202723	0.196930
0.806835	5.232142	0.146025
0.638942	5.456824	0.099257
0.423125	5.260813	0.045782
0.987651	5.145061	0.003566
0.797065	5.161610	-0.046855
1.076527	6.885444	0.960719
0.529057	6.421110	0.763932
1.155178	5.954995	0.670979
0.830082	5.298278	0.539733
0.617253	5.168645	0.475008
0.436500	5.266302	0.432132
1.019302	5.242313	0.393962
0.818463	5.219348	0.339052
0.630558	5.264450	0.289935
0.440274	5.278262	0.239405
1.013656	5.204545	0.197115
0.819775	5.209893	0.145474
0.654487	5.444911	0.099077
0.443174	5.306325	0.046190
1.005922	5.154766	0.003575
0.812897	5.159141	-0.046855
0.546809	6.396699	0.761224
1.175365	5.961174	0.672078
0.851201	5.326164	0.542837
0.635287	5.184520	0.476644
0.450862	5.244084	0.430421
1.036927	5.246988	0.394550
0.830058	5.189221	0.337259
0.646341	5.259518	0.289771
0.452505	5.231104	0.237328
1.029618	5.201410	0.197115
0.836705	5.213275	0.145639
0.672534	5.453793	0.099275
0.466096	5.381651	0.046858
1.024260	5.164407	0.003584
0.831260	5.172419	-0.046998
0.637556	5.153850	-0.094817
0.563715	6.364327	0.757574
1.200677	5.992625	0.676036
0.873298	5.358881	0.546442
0.465887	5.230764	0.429443
1.052431	5.240849	0.394329
0.845653	5.184680	0.337131
0.661600	5.250575	0.289389
0.484865	5.411775	0.245591
1.049315	5.216841	0.197821
0.853341	5.214629	0.145749
0.687884	5.440793	0.099077
0.485820	5.416050	0.047170
1.047014	5.195551	0.003608
0.848903	5.180699	-0.047097
0.653491	5.152862	-0.094835
0.583238	6.362568	0.757574
1.231547	6.050272	0.682963
0.866583	5.216800	0.532223
0.482207	5.232287	0.429687
1.068505	5.237595	0.394329
0.864502	5.199781	0.338284
0.676810	5.241589	0.289006
0.508197	5.482876	0.248888
1.068116	5.227304	0.198341
0.870158	5.216917	0.145887
0.705343	5.444606	0.099185
0.504559	5.437435	0.047370
1.043094	5.095326	0.003540
0.865287	5.181029	-0.047124
0.670198	5.157773	-0.094963
0.609501	6.431929	0.766051
1.252920	6.060093	0.684502
0.901514	5.325953	0.543638
0.701728	5.320626	0.489730
0.498257	5.230783	0.429687
1.085175	5.237222	0.394550
0.881450	5.203008	0.338668
0.693019	5.240477	0.289061
0.522063	5.450464	0.247488
1.085569	5.230852	0.198601
0.886662	5.217179	0.145970
0.725594	5.469177	0.099673
0.524770	5.472691	0.047691
1.067474	5.134201	0.003569
0.882353	5.185251	-0.047187
0.609501	6.228411	0.742031
1.276204	6.078593	0.687031
0.923428	5.355518	0.546943
0.699128	5.178307	0.476826
0.514010	5.226254	0.429443
1.101854	5.236796	0.394771
0.889093	5.152092	0.335530
0.708290	5.232390	0.288733
0.541043	5.471702	0.248526
1.104497	5.241187	0.199121
0.901129	5.205570	0.145722
0.743850	5.477824	0.099871
0.540376	5.459114	0.047587
1.079503	5.113290	0.003557
0.893304	5.153947	-0.046927
1.294846	6.074649	0.687031
0.935036	5.325221	0.544139
0.723052	5.234341	0.482188
0.530947	5.233577	0.430176
1.119165	5.239243	0.395212
0.905932	5.155238	0.335914
0.725024	5.235137	0.289006
0.557523	5.467035	0.248391
1.121199	5.240705	0.199233
0.917616	5.205734	0.145804
0.759139	5.464623	0.099673
0.556715	5.453451	0.047552
1.096861	5.117777	0.003563
0.905636	5.131487	-0.046747
0.671653	6.454690	0.769466
1.324617	6.122135	0.692858
0.954171	5.337998	0.545741
0.546897	5.230932	0.430095
1.134599	5.232860	0.394992
0.925786	5.175028	0.337387
0.742062	5.239809	0.289389
0.575859	5.480201	0.249068
1.137060	5.236264	0.199196
0.936584	5.219621	0.146273
0.777166	5.471177	0.099835
0.574594	5.462657	0.047647
1.116383	5.131976	0.003575
0.924027	5.143448	-0.046882
0.689866	6.437789	0.767700
1.335506	6.082123	0.688790
0.974461	5.356582	0.547944
0.564010	5.239139	0.430910
1.150434	5.228381	0.394918
0.943267	5.181000	0.337963
0.758992	5.243437	0.289716
0.592347	5.475430	0.248933
1.152689	5.230799	0.199121
0.953311	5.220656	0.146384
0.795671	5.480640	0.100052
0.590597	5.453909	0.047587
1.142039	5.173446	0.003606
0.942141	5.153376	-0.046998
0.705913	6.402082	0.763697
1.338165	6.006205	0.680654
0.989079	5.343783	0.546943
0.581397	5.249272	0.431888
1.172988	5.254027	0.397125
0.956794	5.165325	0.337131
0.775367	5.243059	0.289825
0.606602	5.450751	0.247894
1.169386	5.230164	0.199233
0.968045	5.210827	0.146190
0.811749	5.473228	0.099962
0.607216	5.451078	0.047578
1.153753	5.151377	0.003593
0.958312	5.152427	-0.047016
0.724320	6.389032	0.762401
1.342561	5.940025	0.673618
1.009335	5.361257	0.549045
0.790495	5.246738	0.484187
0.598063	5.252415	0.432295
1.190203	5.255266	0.397493
0.972452	5.161384	0.337067
0.789958	5.230783	0.289279
0.625025	5.463751	0.248571
1.184100	5.220704	0.199010
0.984955	5.212744	0.146328
0.827039	5.460826	0.099781
0.624506	5.454157	0.047621
1.173982	5.167316	0.003607
0.980992	5.185817	-0.047348
0.741620	6.367052	0.760046
1.356559	5.917471	0.671529
1.024469	5.351295	0.548345
0.613363	5.243626	0.431725
1.207437	5.256450	0.397861
1.004431	5.242667	0.342575
0.805850	5.227348	0.289225
0.641784	5.461808	0.248571
1.200559	5.218994	0.199084
0.998868	5.198899	0.146025
0.842720	5.451347	0.099655
0.642521	5.463139	0.047717
1.204425	5.227030	0.003651
0.989531	5.144487	-0.046998
1.641982	7.062959	1.071168
0.770230	6.440670	0.769113
1.372457	5.903600	0.670429
1.036890	5.327617	0.546242
0.631111	5.255573	0.432866
1.223558	5.252721	0.397861
1.005439	5.162177	0.337515
0.819091	5.207096	0.288242
0.656743	5.444937	0.247894
1.212252	5.196796	0.198378
1.014047	5.191886	0.145915
0.857571	5.436884	0.099438
0.659518	5.463128	0.047734
1.216360	5.205782	0.003639
1.018166	5.207179	-0.047599
1.652068	7.008782	1.063715
0.790833	6.445176	0.769937
1.397175	5.927417	0.673618
1.058636	5.351741	0.549045
0.648695	5.265482	0.433844
1.239896	5.249913	0.397934
1.021272	5.159069	0.337515
0.837435	5.219347	0.289061
0.671605	5.428025	0.247217
1.233480	5.215420	0.199233
1.029971	5.188751	0.145915
0.870753	5.412511	0.099040
0.672834	5.433292	0.047491
1.228868	5.187430	0.003629
1.031018	5.188338	-0.047456
0.806140	6.407250	0.765698
1.417433	5.931803	0.674607
1.066423	5.305547	0.544640
0.666719	5.278300	0.435066
1.258087	5.254813	0.398596
1.040834	5.174500	0.338732
0.848446	5.186206	0.287368
0.690266	5.441796	0.247939
1.249941	5.213554	0.199307
1.046280	5.187526	0.145970
0.881852	5.376267	0.098426
0.687359	5.414338	0.047344
1.238005	5.155437	0.003609
1.049504	5.197893	-0.047573
0.826936	6.413611	0.766758
1.441240	5.950611	0.677246
1.089065	5.333446	0.547844
0.869738	5.227119	0.483551
0.678048	5.238669	0.431969
1.276084	5.258682	0.399185
1.051709	5.146839	0.337131
0.863203	5.176684	0.286986
0.709404	5.458475	0.248797
1.264986	5.205811	0.199159
1.065200	5.198981	0.146384
0.891582	5.333104	0.097686
0.711706	5.471701	0.047864
1.248850	5.131211	0.003595
1.055601	5.146650	-0.047133
0.850509	6.440578	0.770290
1.463043	5.960640	0.678895
1.115121	5.376843	0.552650
0.693200	5.229648	0.431399
1.294831	5.265395	0.399994
1.080067	5.204169	0.341102
0.884433	5.205512	0.288733
0.726938	5.462214	0.249068
1.281190	5.202876	0.199196
1.080534	5.192752	0.146301
0.896692	5.264306	0.096475
0.730734	5.486342	0.048012
1.280151	5.190464	0.003639
1.078115	5.175692	-0.047429
0.868801	6.427114	0.768995
1.496436	6.016891	0.685821
1.125255	5.343215	0.549546
0.893999	5.176543	0.479370
0.709778	5.231447	0.431725
1.312425	5.267204	0.400436
1.096234	5.201808	0.341166
0.896824	5.182112	0.287587
0.743423	5.457978	0.248978
1.300291	5.211525	0.199679
1.096874	5.191369	0.146356
0.913351	5.264486	0.096530
0.746617	5.477139	0.047951
1.280796	5.125391	0.003596
1.089437	5.150837	-0.047232
0.889332	6.430320	0.769702
1.518531	6.026728	0.687470
1.138106	5.323197	0.547844
0.727742	5.243066	0.432866
1.324917	5.248649	0.399332
1.124715	5.256972	0.345008
0.910465	5.166553	0.286877
0.760716	5.459629	0.249158
1.316274	5.207512	0.199679
1.110909	5.179183	0.146108
0.928976	5.258705	0.096475
0.761760	5.462938	0.047847
1.298723	5.130163	0.003602
1.112371	5.180711	-0.047537
0.907665	6.417729	0.768524
1.540947	6.037450	0.689229
1.158231	5.337182	0.549646
0.947682	5.293495	0.490730
0.744385	5.244756	0.433192
1.341508	5.246492	0.399479
1.136391	5.233017	0.343663
0.927898	5.172581	0.287368
0.777039	5.454303	0.249023
1.333235	5.207321	0.199827
1.129770	5.189425	0.146494
0.954837	5.309953	0.097469
0.780069	5.471465	0.047942
1.329359	5.184274	0.003643
1.134009	5.203654	-0.047779
0.928771	6.424742	0.769702
1.561452	6.040393	0.690109
1.179949	5.357896	0.552150
0.919470	5.046608	0.468102
0.759470	5.235543	0.432621
1.350597	5.215319	0.397419
1.136977	5.159337	0.339052
0.941253	5.155958	0.286604
0.792330	5.442008	0.248571
1.347449	5.196435	0.199567
1.149998	5.205456	0.147045
0.981202	5.362075	0.098480
0.794256	5.451234	0.047786
1.327663	5.112419	0.003595
1.149321	5.197221	-0.047752
0.950508	6.435616	0.771350
1.591555	6.079805	0.695166
1.190523	5.328033	0.549446
0.978874	5.280726	0.490094
0.773776	5.221357	0.431643
1.368362	5.217903	0.397934
1.165865	5.214259	0.342895
0.952508	5.128503	0.285239
0.801527	5.389158	0.246269
1.358817	5.174879	0.198898
1.168149	5.211658	0.147321
0.993988	5.339381	0.098119
0.812890	5.461630	0.047899
1.360381	5.173118	0.003641
1.154971	5.147813	-0.047330
0.972618	6.448381	0.773234
1.612238	6.082579	0.696046
1.207744	5.328236	0.549847
0.790537	5.223886	0.432051
1.398696	5.267658	0.402054
1.168613	5.152264	0.339052
0.977876	5.176577	0.288078
0.794658	5.232599	0.239225
1.379822	5.190001	0.199641
1.181917	5.198302	0.147045
1.008504	5.326482	0.097939
0.829192	5.456144	0.047873
1.378562	5.177617	0.003647
1.179192	5.181296	-0.047671
0.999046	6.488551	0.778415
1.731872	6.453915	0.739143
1.223862	5.323537	0.549746
0.805190	5.212571	0.431317
1.416404	5.269121	0.402496
1.184190	5.147682	0.338988
0.998273	5.197086	0.289389
0.810096	5.226188	0.239044
1.410023	5.238817	0.201685
1.197185	5.191729	0.146963
1.024652	5.322381	0.097920
0.850832	5.485195	0.048150
1.393399	5.169501	0.003644
1.186536	5.140629	-0.047330
1.011087	6.435424	0.772410
1.834779	6.754550	0.774215
1.254872	5.382741	0.556255
1.013718	5.201115	0.483551
0.823506	5.224844	0.432540
1.427588	5.246467	0.401098
1.209953	5.186786	0.341806
1.015361	5.199879	0.289716
0.821132	5.192103	0.237599
1.420572	5.214219	0.200905
1.213791	5.190952	0.147045
1.039248	5.310381	0.097758
0.865468	5.468732	0.048029
1.410305	5.169061	0.003647
1.208454	5.163253	-0.047573
1.025640	6.399934	0.768524
1.867877	6.793933	0.779382
1.264514	5.349817	0.553251
1.019994	5.149137	0.479007
0.840797	5.230166	0.433192
1.456122	5.287253	0.404555
1.218739	5.152944	0.339821
1.031309	5.196740	0.289716
0.834194	5.171807	0.236786
1.461267	5.299428	0.204359
1.240087	5.230973	0.148286
1.056900	5.314032	0.097884
0.883357	5.472961	0.048090
1.434408	5.194592	0.003668
1.219210	5.138117	-0.047375
1.631205	6.817270	0.966319
1.052157	6.438900	0.773587
1.892708	6.802533	0.781031
1.280689	5.344945	0.553151
1.045023	5.191868	0.483278
0.858774	5.239364	0.434170
1.480101	5.310620	0.406689
1.243151	5.185087	0.342190
1.048827	5.201382	0.290153
0.852651	5.184996	0.237509
1.478056	5.296845	0.204434
1.251224	5.206733	0.147707
1.070822	5.299005	0.097668
0.894136	5.433718	0.047769
1.446839	5.177646	0.003659
1.231460	5.119768	-0.047241
1.671725	6.893103	0.977790
1.080716	6.488537	0.779945
1.919764	6.818700	0.783560
1.298255	5.345825	0.553652
0.878785	5.260297	0.436126
1.536179	5.447153	0.417504
1.274370	5.244281	0.346353
1.064980	5.199118	0.290208
0.871196	5.198119	0.238231
1.507605	5.339409	0.206254
1.274526	5.232978	0.148562
1.088280	5.301571	0.097776
0.901871	5.377695	0.047300
1.467071	5.188579	0.003670
1.097627	6.467568	0.777826
1.942036	6.817558	0.784110
1.302048	5.290611	0.548345
1.106221	5.326742	0.496455
0.894585	5.255612	0.435963
1.509375	5.289930	0.405806
1.286874	5.225812	0.345393
1.080925	5.195826	0.290208
0.889662	5.210192	0.238909
1.528096	5.349172	0.206811
1.281712	5.193135	0.147542
1.103112	5.291356	0.097650
0.915334	5.357160	0.047144
1.493708	5.221550	0.003697
1.116280	6.457321	0.777002
1.981108	6.874602	0.791366
1.337532	5.363824	0.556355
0.913259	5.267573	0.437185
1.583955	5.487449	0.421329
1.309182	5.247014	0.347058
1.099131	5.203232	0.290808
0.905300	5.205470	0.238818
1.539506	5.327178	0.206143
1.299093	5.194997	0.147707
1.113129	5.258602	0.097108
0.932966	5.361223	0.047205
1.515559	5.237115	0.003711
1.135569	6.450931	0.776649
2.004694	6.877080	0.792355
1.361780	5.390565	0.559560
1.108031	5.175732	0.483006
0.926470	5.248061	0.435800
1.627057	5.572552	0.428245
1.326252	5.246843	0.347314
1.122208	5.233029	0.292665
0.918130	5.184962	0.238005
1.565936	5.356960	0.207480
1.316007	5.194863	0.147817
1.127786	5.248319	0.096981
0.948537	5.353412	0.047162
1.538080	5.254514	0.003727
1.154128	6.440575	0.775824
2.034496	6.900451	0.795764
1.357099	5.303465	0.550948
1.135323	5.224858	0.487913
0.945034	5.258927	0.436941
1.654597	5.602923	0.430967
1.346550	5.259184	0.348403
1.137408	5.225659	0.292446
0.935096	5.188020	0.238276
1.585480	5.362672	0.207889
1.332187	5.191769	0.147845
1.143669	5.243857	0.096963
0.985899	5.466599	0.048185
1.511897	5.106900	0.003625
1.174595	6.440912	0.776295
2.049125	6.872270	0.793235
1.360134	5.248229	0.545641
1.156494	5.244690	0.490094
0.958295	5.240316	0.435637
1.676915	5.615021	0.432291
1.154080	5.225070	0.292610
0.949387	5.176283	0.237870
1.601066	5.354910	0.207777
1.358417	5.227324	0.148975
1.160616	5.244229	0.097035
1.006998	5.487154	0.048393
1.566564	5.232524	0.003718
1.516239	6.788865	0.891347
1.194894	6.440207	0.776649
2.071920	6.871661	0.793895
1.405021	5.353744	0.557056
1.177363	5.262498	0.492093
0.975826	5.245190	0.436289
1.705667	5.648038	0.435234
1.170105	5.221505	0.292610
0.968561	5.191023	0.238683
1.627320	5.382496	0.209040
1.377754	5.235699	0.149334
1.178890	5.250399	0.097216
1.024194	5.486004	0.048411
1.563776	5.165482	0.003674
1.219250	6.460906	0.779592
2.095601	6.873828	0.794884
1.446481	5.443645	0.566870
1.186669	5.228755	0.489276
0.994322	5.254903	0.437349
1.721530	5.638009	0.434866
1.410283	5.304435	0.352245
1.183242	5.205233	0.291900
0.985786	5.194897	0.238999
1.648792	5.393724	0.209672
1.404105	5.270085	0.150437
1.196991	5.255531	0.097379
1.041207	5.483819	0.048419
1.238317	6.453234	0.779121
2.127805	6.903461	0.799062
1.440430	5.354630	0.558058
1.212311	5.266821	0.493184
1.011381	5.256721	0.437756
1.739408	5.634607	0.435013
1.411247	5.243228	0.348467
1.201224	5.210335	0.292392
1.001908	5.192829	0.239044
1.703690	5.512758	0.214501
1.419746	5.263822	0.150382
1.208609	5.232351	0.097017
1.056889	5.474707	0.048367
1.260391	6.461100	0.780534
2.136261	6.856096	0.794334
1.488743	5.467308	0.570274
1.022912	5.230119	0.435800
1.762331	5.647332	0.436411
1.428900	5.244650	0.348851
1.221750	5.226071	0.293484
1.018988	5.195613	0.239315
1.744732	5.584767	0.217510
1.440364	5.275835	0.150850
1.228076	5.243220	0.097288
1.074643	5.476346	0.048411
1.279049	6.451359	0.779828
2.160569	6.859938	0.795544
1.504452	5.458878	0.569874
1.243688	5.255407	0.492820
1.038370	5.224023	0.435555
1.773348	5.621926	0.434866
1.446841	5.246976	0.349299
1.238468	5.225213	0.293648
1.035900	5.197360	0.239541
1.770584	5.607023	0.218588
1.454147	5.262720	0.150602
1.242077	5.230673	0.097126
1.090657	5.469100	0.048376
1.303934	6.472715	0.782889
2.172862	6.825811	0.792355
1.512639	5.423568	0.566669
1.051828	5.208112	0.434496
1.773927	5.564200	0.430820
1.472856	5.278078	0.351669
1.254493	5.221389	0.293648
1.042125	5.146182	0.237328
1.742506	5.459717	0.213052
1.481054	5.296741	0.151705
1.258587	5.228782	0.097162
1.105643	5.456908	0.048298
1.331352	6.505654	0.787363
1.543323	5.468696	0.571877
1.074010	5.235127	0.437022
1.818209	5.643213	0.437367
1.483618	5.254327	0.350388
1.271688	5.222366	0.293921
1.091521	5.306369	0.244869
1.807102	5.602711	0.218848
1.501107	5.305639	0.152091
1.276281	5.231695	0.097288
1.123388	5.458387	0.048341
1.664518	6.766298	0.892872
1.346657	6.479176	0.784655
1.624290	5.688768	0.595408
1.091083	5.236686	0.437430
1.509052	5.282375	0.352566
1.292727	5.238799	0.295067
1.123321	5.377313	0.248301
1.807870	5.546784	0.216879
1.524254	5.325034	0.152780
1.295925	5.242315	0.097559
1.141765	5.462745	0.048411
1.680471	6.741910	0.890330
1.379037	6.534285	0.791838
1.985489	6.873849	0.720078
1.109825	5.245990	0.438490
1.532177	5.301689	0.354167
1.306129	5.224152	0.294467
1.139191	5.370910	0.248165
1.838633	5.582975	0.218513
1.546979	5.342417	0.153415
1.312974	5.242194	0.097631
1.157066	5.452370	0.048350
1.687790	6.683830	0.883340
1.396997	6.520313	0.790660
2.011870	6.885871	0.721980
1.339538	5.296535	0.498545
1.126752	5.246459	0.438816
1.557116	5.326657	0.356152
1.325338	5.232703	0.295176
1.152720	5.353717	0.247533
1.565048	5.343401	0.153580
1.332493	5.251709	0.097884
1.176736	5.462480	0.048471
2.031858	6.875850	0.721580
1.143267	5.244924	0.438979
1.575431	5.328553	0.356600
1.345604	5.245055	0.296105
1.164448	5.328685	0.246540
1.583137	5.344326	0.153745
1.348598	5.247596	0.097884
1.185160	5.420745	0.048133
1.570171	7.132920	1.139158
1.450246	6.571741	0.797960
2.049524	6.858144	0.720378
1.159353	5.241393	0.438979
1.648661	5.513963	0.369345
1.363698	5.248633	0.296542
1.186629	5.351420	0.247759
1.635670	5.460098	0.157220
1.364691	5.243434	0.097884
1.210231	5.455157	0.048471
1.600231	7.164712	1.145014
1.471703	6.573075	0.798667
2.076024	6.869920	0.722281
1.397592	5.319620	0.501908
1.176737	5.243646	0.439468
4.767745	13.914893	1.085068
1.657194	5.481177	0.367488
1.378523	5.239597	0.296268
1.195368	5.313643	0.246178
1.629520	5.379476	0.155041
1.384084	5.251791	0.098119
1.221692	5.428005	0.048263
1.606048	7.088461	1.133610
1.489883	6.559813	0.797607
2.105522	6.891114	0.725185
1.193040	5.240983	0.439549
4.793453	13.851193	1.081242
1.718347	5.621129	0.377223
1.394592	5.235343	0.296268
1.221887	5.354752	0.248255
